ncols        215
nrows        32
xllcorner    686896.342741
yllcorner    4251455.02771
cellsize     200.000000000000
NODATA_value  -9999
281.88482666015625 233.7159271240234375 213.015777587890625 200.8742218017578125 211.3031158447265625 237.845001220703125 240.754058837890625 238.103271484375 273.22698974609375 267.728668212890625 322.671661376953125 331.39263916015625 346.14031982421875 327.5860595703125 278.3699951171875 325.482391357421875 378.165008544921875 391.537445068359375 396.715911865234375 404.885711669921875 419.355682373046875 403.7818603515625 347.80450439453125 385.39111328125 434.41033935546875 452.6287841796875 482.416595458984375 486.4005126953125 478.28009033203125 486.67718505859375 494.075225830078125 496.256378173828125 488.7735595703125 436.914031982421875 463.935516357421875 436.23431396484375 440.577880859375 421.056488037109375 442.775054931640625 478.3743896484375 515.5616455078125 525.56964111328125 529.17547607421875 533.2926025390625 512.51568603515625 552.2945556640625 568.519775390625 577.23541259765625 592.0648193359375 604.52984619140625 557.942626953125 556.8236083984375 566.669921875 613.68841552734375 586.89593505859375 598.51885986328125 596.9820556640625 608.029296875 577.34820556640625 569.96881103515625 614.23870849609375 638.6475830078125 624.70782470703125 598.6363525390625 606.5782470703125 593.75091552734375 602.76800537109375 605.64691162109375 635.53936767578125 640.78399658203125 644.173828125 633.804931640625 639.680419921875 641.73345947265625 661.6199951171875 644.71514892578125 645.84820556640625 658.0166015625 670.9459228515625 682.660888671875 707.07220458984375 686.53326416015625 641.446533203125 671.72674560546875 718.22393798828125 730.113525390625 687.21478271484375 682.80841064453125 690.4039306640625 714.08331298828125 750.3489990234375 774.77056884765625 778.306396484375 716.62738037109375 728.36041259765625 772.79034423828125 736.8917236328125 665.63995361328125 653.6075439453125 634.89666748046875 631.6702880859375 632.675537109375 623.4244384765625 623.899169921875 629.11578369140625 660.08685302734375 692.831298828125 652.34429931640625 687.12548828125 731.63531494140625 818.0126953125 877.47357177734375 894.85528564453125 839.3880615234375 790.11248779296875 773.05389404296875 791.70660400390625 806.0855712890625 837.17742919921875 837.59246826171875 822.37811279296875 830.3394775390625 825.81591796875 808.1488037109375 829.9271240234375 869.48602294921875 881.5928955078125 903.95880126953125 931.5411376953125 978.6375732421875 1005.8807373046875 1028.6009521484375 1040.2158203125 1041.275634765625 1060.967041015625 1063.923095703125 1049.902099609375 1039.9114990234375 1019.50506591796875 1020.94244384765625 1030.8690185546875 1042.766357421875 1051.67724609375 1038.94921875 989.1876220703125 965.07843017578125 961.65045166015625 925.4781494140625 920.558837890625 902.244384765625 881.97564697265625 901.18890380859375 841.37518310546875 741.253662109375 736.6051025390625 846.519287109375 -9999 -9999 -9999 -9999 -9999 -9999 -9999 -9999 -9999 -9999 -9999 -9999 -9999 -9999 -9999 -9999 -9999 -9999 -9999 -9999 -9999 -9999 -9999 -9999 -9999 -9999 -9999 -9999 -9999 -9999 -9999 -9999 -9999 -9999 -9999 -9999 -9999 -9999 -9999 -9999 -9999 -9999 -9999 -9999 -9999 -9999 -9999 -9999 -9999 -9999 -9999 -9999 -9999 -9999 -9999 -9999 -9999 -9999 -9999
235.888031005859375 246.2106781005859375 210.8104705810546875 204.889862060546875 246.1053009033203125 220.8391571044921875 232.1134490966796875 241.50885009765625 272.466094970703125 320.367645263671875 327.23681640625 371.441864013671875 360.533203125 340.673187255859375 307.580780029296875 302.706329345703125 332.02044677734375 374.67291259765625 360.678466796875 405.33685302734375 412.998138427734375 382.099761962890625 336.530670166015625 406.5157470703125 453.274383544921875 465.136383056640625 483.1317138671875 481.271728515625 448.07476806640625 462.580657958984375 474.2950439453125 499.7423095703125 513.95263671875 506.85369873046875 494.457489013671875 455.61932373046875 467.96319580078125 483.306060791015625 465.6807861328125 508.77581787109375 533.9097900390625 555.2606201171875 531.866455078125 547.5325927734375 525.46630859375 548.42523193359375 560.34722900390625 561.942138671875 579.3712158203125 585.46044921875 572.77874755859375 564.8936767578125 572.52655029296875 580.15875244140625 582.9488525390625 585.6026611328125 603.86944580078125 609.7313232421875 622.29449462890625 609.9921875 614.03814697265625 658.4652099609375 635.336181640625 610.08441162109375 635.7186279296875 621.34600830078125 605.5181884765625 605.51220703125 597.5731201171875 605.2322998046875 620.99822998046875 622.46563720703125 643.87432861328125 643.95233154296875 665.5670166015625 684.624755859375 697.6390380859375 735.53790283203125 743.88812255859375 734.8917236328125 738.6151123046875 686.296875 668.18450927734375 584.338134765625 631.17510986328125 670.62261962890625 634.41546630859375 669.73248291015625 687.44281005859375 696.9261474609375 721.5548095703125 709.08599853515625 725.19183349609375 688.8193359375 708.39288330078125 732.38189697265625 733.90765380859375 681.690673828125 644.62701416015625 625.822265625 621.7041015625 624.30584716796875 638.61175537109375 651.92816162109375 635.02978515625 636.777587890625 642.75244140625 717.24578857421875 685.24456787109375 746.44580078125 821.14276123046875 858.87542724609375 904.80181884765625 880.2095947265625 818.280517578125 800.60675048828125 810.47198486328125 838.2906494140625 866.38470458984375 846.485595703125 822.439208984375 856.346435546875 884.4658203125 880.57257080078125 893.5791015625 898.6334228515625 910.64495849609375 918.77569580078125 979.3258056640625 998.086181640625 1012.54180908203125 1017.2640380859375 1006.96783447265625 1036.110595703125 1015.537841796875 1040.4024658203125 1043.6595458984375 1020.25189208984375 1005.485107421875 1024.3314208984375 1048.0657958984375 1063.1219482421875 1077.2371826171875 1044.6668701171875 968.9622802734375 942.95086669921875 942.3975830078125 917.07232666015625 917.08837890625 919.32342529296875 879.6256103515625 834.09075927734375 784.2939453125 706.8599853515625 702.19036865234375 -9999 -9999 -9999 -9999 -9999 -9999 -9999 -9999 -9999 -9999 -9999 -9999 -9999 -9999 -9999 -9999 -9999 -9999 -9999 -9999 -9999 -9999 -9999 -9999 -9999 -9999 -9999 -9999 -9999 -9999 -9999 -9999 -9999 -9999 -9999 -9999 -9999 -9999 -9999 -9999 -9999 -9999 -9999 -9999 -9999 -9999 -9999 -9999 -9999 -9999 -9999 -9999 -9999 -9999 -9999 -9999 -9999 -9999 -9999 -9999
225.527374267578125 248.975311279296875 200.512664794921875 227.1212615966796875 254.20367431640625 255.431304931640625 231.94921875 250.0400238037109375 269.00885009765625 298.044769287109375 304.615570068359375 335.606903076171875 358.4571533203125 357.22930908203125 335.231414794921875 322.276123046875 325.096923828125 351.544708251953125 345.846923828125 360.1640625 353.979522705078125 323.628173828125 358.787353515625 411.520538330078125 433.287139892578125 456.27374267578125 457.3858642578125 474.527435302734375 451.14947509765625 485.2353515625 520.30120849609375 492.908111572265625 499.6112060546875 540.55010986328125 528.13397216796875 493.6318359375 478.8914794921875 520.58245849609375 536.8060302734375 524.94580078125 518.5921630859375 523.4495849609375 538.61785888671875 517.28741455078125 528.0721435546875 535.65789794921875 542.51806640625 570.18603515625 560.26055908203125 574.7786865234375 563.17962646484375 561.9271240234375 570.7467041015625 565.651611328125 572.627685546875 582.62591552734375 598.010009765625 585.7196044921875 586.46697998046875 641.23431396484375 613.1453857421875 608.44378662109375 649.58184814453125 626.88037109375 645.9400634765625 641.92742919921875 636.41302490234375 647.0255126953125 637.51220703125 639.70672607421875 603.61737060546875 603.19793701171875 573.58404541015625 575.1168212890625 645.72998046875 662.3349609375 689.2381591796875 670.17266845703125 695.860595703125 711.52020263671875 715.18505859375 669.97113037109375 620.37152099609375 584.23004150390625 613.62750244140625 611.6285400390625 649.2822265625 718.0445556640625 700.387939453125 656.9853515625 645.89239501953125 617.44775390625 675.8472900390625 618.7999267578125 687.324951171875 676.78338623046875 677.85919189453125 643.21044921875 633.12933349609375 627.20166015625 623.42413330078125 644.4385986328125 663.7335205078125 688.29815673828125 646.3961181640625 680.0013427734375 678.154296875 682.0867919921875 714.361083984375 756.97576904296875 787.6912841796875 835.0753173828125 892.616455078125 891.8575439453125 854.86920166015625 829.08807373046875 854.019287109375 861.69183349609375 880.67803955078125 846.86993408203125 841.7396240234375 879.83709716796875 907.28240966796875 896.3619384765625 918.255615234375 909.89300537109375 926.77154541015625 951.61590576171875 989.30938720703125 1000.25823974609375 1009.4261474609375 977.3468017578125 983.35565185546875 987.06561279296875 982.00927734375 995.70367431640625 1030.9075927734375 1008.51751708984375 998.3106689453125 1029.6668701171875 1050.3077392578125 1029.413330078125 1005.809326171875 993.0250244140625 964.7283935546875 936.0889892578125 919.033203125 903.8583984375 901.92242431640625 908.88916015625 859.12921142578125 780.00836181640625 741.3162841796875 677.326416015625 -9999 -9999 -9999 -9999 -9999 -9999 -9999 -9999 -9999 -9999 -9999 -9999 -9999 -9999 -9999 -9999 -9999 -9999 -9999 -9999 -9999 -9999 -9999 -9999 -9999 -9999 -9999 -9999 -9999 -9999 -9999 -9999 -9999 -9999 -9999 -9999 -9999 -9999 -9999 -9999 -9999 -9999 -9999 -9999 -9999 -9999 -9999 -9999 -9999 -9999 -9999 -9999 -9999 -9999 -9999 -9999 -9999 -9999 -9999 -9999 -9999
210.7326202392578125 202.889129638671875 189.0356903076171875 200.5332183837890625 216.4785003662109375 222.7233123779296875 227.941009521484375 235.57159423828125 239.949737548828125 274.95660400390625 296.09765625 349.80499267578125 352.716949462890625 358.480010986328125 357.008453369140625 327.624114990234375 341.98687744140625 319.448211669921875 326.783355712890625 312.242156982421875 345.48052978515625 382.650421142578125 351.624114990234375 369.51806640625 423.8592529296875 434.7366943359375 463.805084228515625 461.125885009765625 436.069854736328125 465.114837646484375 476.8402099609375 481.155181884765625 470.36065673828125 509.005950927734375 513.079833984375 515.5601806640625 526.1138916015625 508.268798828125 507.262481689453125 513.40069580078125 528.9727783203125 523.61663818359375 509.410247802734375 512.3885498046875 523.676025390625 552.61419677734375 552.83172607421875 560.304931640625 551.846435546875 561.63128662109375 572.3380126953125 548.334716796875 553.8310546875 581.8394775390625 590.0841064453125 606.7313232421875 607.55609130859375 597.56201171875 569.65875244140625 601.7745361328125 604.691162109375 592.24267578125 625.17193603515625 621.3463134765625 631.0323486328125 618.53839111328125 618.93072509765625 586.00714111328125 583.752197265625 595.3607177734375 562.79437255859375 500.5771484375 499.652923583984375 496.02142333984375 519.3919677734375 618.98748779296875 586.18505859375 537.645751953125 613.2486572265625 619.616455078125 650.4974365234375 607.44195556640625 607.7344970703125 576.88189697265625 611.02239990234375 606.62310791015625 611.93048095703125 618.5699462890625 695.90155029296875 631.11553955078125 572.378662109375 581.01025390625 574.7227783203125 604.10333251953125 590.69378662109375 624.18341064453125 618.8460693359375 628.14178466796875 671.13958740234375 623.16583251953125 647.45220947265625 638.8128662109375 647.7998046875 663.6141357421875 670.5140380859375 735.70263671875 719.572021484375 713.25115966796875 728.1883544921875 763.4525146484375 807.4432373046875 842.04248046875 882.2420654296875 887.41058349609375 906.7696533203125 882.205078125 891.69024658203125 900.24371337890625 948.08526611328125 915.6436767578125 893.8975830078125 894.43194580078125 928.259033203125 925.039306640625 935.59735107421875 942.06915283203125 951.55712890625 967.36004638671875 992.72088623046875 1002.49658203125 961.82928466796875 948.07989501953125 963.611328125 951.80291748046875 966.326904296875 989.55889892578125 991.3743896484375 992.24969482421875 1004.7421875 1007.7969970703125 955.10272216796875 951.3089599609375 952.3646240234375 965.83709716796875 965.8177490234375 930.01641845703125 918.8629150390625 898.58404541015625 894.13543701171875 842.7191162109375 791.529296875 757.2420654296875 693.79718017578125 -9999 -9999 -9999 -9999 -9999 -9999 -9999 -9999 -9999 -9999 -9999 -9999 -9999 -9999 -9999 -9999 -9999 -9999 -9999 -9999 -9999 -9999 -9999 -9999 -9999 -9999 -9999 -9999 -9999 -9999 -9999 -9999 -9999 -9999 -9999 -9999 -9999 -9999 -9999 -9999 -9999 -9999 -9999 -9999 -9999 -9999 -9999 -9999 -9999 -9999 -9999 -9999 -9999 -9999 -9999 -9999 -9999 -9999 -9999 -9999 -9999 -9999
193.8897705078125 189.843994140625 201.9484100341796875 216.1909027099609375 205.7328643798828125 249.692901611328125 251.85638427734375 266.510528564453125 289.739532470703125 309.32733154296875 320.8521728515625 317.409423828125 355.10693359375 362.7572021484375 363.884368896484375 347.9735107421875 325.354522705078125 316.135955810546875 312.61895751953125 329.454010009765625 369.527984619140625 371.7689208984375 401.3870849609375 398.607696533203125 398.972442626953125 458.856658935546875 442.352569580078125 448.053253173828125 421.10791015625 453.53424072265625 468.49017333984375 483.069122314453125 471.833526611328125 497.1114501953125 493.1990966796875 517.26544189453125 540.345703125 522.2747802734375 506.077667236328125 496.30029296875 500.178131103515625 510.285919189453125 493.9169921875 521.950439453125 528.86163330078125 561.3492431640625 553.7509765625 549.1536865234375 536.7650146484375 552.01385498046875 536.1221923828125 553.465576171875 587.63909912109375 605.83892822265625 612.03814697265625 632.0965576171875 601.4202880859375 595.62200927734375 574.6776123046875 590.663330078125 575.0567626953125 550.11529541015625 600.81536865234375 634.030029296875 596.74560546875 587.2437744140625 529.43310546875 550.3701171875 500.317779541015625 530.25286865234375 505.365936279296875 514.093017578125 525.10040283203125 592.052978515625 507.06951904296875 536.5614013671875 544.20257568359375 533.2860107421875 523.8416748046875 558.12017822265625 593.45867919921875 562.9752197265625 569.56622314453125 567.96966552734375 627.99176025390625 567.33782958984375 590.66241455078125 649.912353515625 593.4510498046875 563.4027099609375 570.41796875 652.5040283203125 622.7261962890625 623.84649658203125 619.61346435546875 612.53582763671875 685.91033935546875 709.62030029296875 693.09063720703125 640.55194091796875 623.4102783203125 630.57623291015625 641.036865234375 701.941162109375 662.131103515625 683.98193359375 727.30828857421875 719.97802734375 770.39520263671875 806.87060546875 852.9805908203125 871.0294189453125 883.4815673828125 906.80889892578125 922.466796875 933.04522705078125 946.1011962890625 941.74383544921875 946.333251953125 950.4322509765625 949.13525390625 960.06298828125 973.574951171875 975.70611572265625 941.80780029296875 930.98974609375 941.32666015625 959.56005859375 965.7086181640625 964.86553955078125 937.08233642578125 928.39208984375 937.505615234375 949.41668701171875 962.0528564453125 965.31231689453125 975.7396240234375 1012.15966796875 1030.4102783203125 994.40472412109375 940.99273681640625 933.60595703125 941.53851318359375 944.78076171875 942.84307861328125 922.9306640625 904.363525390625 881.81195068359375 864.2900390625 831.93975830078125 740.48675537109375 681.99981689453125 -9999 -9999 -9999 -9999 -9999 -9999 -9999 -9999 -9999 -9999 -9999 -9999 -9999 -9999 -9999 -9999 -9999 -9999 -9999 -9999 -9999 -9999 -9999 -9999 -9999 -9999 -9999 -9999 -9999 -9999 -9999 -9999 -9999 -9999 -9999 -9999 -9999 -9999 -9999 -9999 -9999 -9999 -9999 -9999 -9999 -9999 -9999 -9999 -9999 -9999 -9999 -9999 -9999 -9999 -9999 -9999 -9999 -9999 -9999 -9999 -9999 -9999 -9999
180.864410400390625 201.541473388671875 218.2923431396484375 234.7116241455078125 259.19451904296875 237.37249755859375 270.299102783203125 275.330963134765625 294.879547119140625 307.513427734375 333.364593505859375 333.552764892578125 355.347076416015625 353.94964599609375 358.41278076171875 347.913055419921875 318.280609130859375 306.748199462890625 311.6767578125 324.77532958984375 343.036956787109375 379.323272705078125 396.16729736328125 412.07073974609375 399.891815185546875 455.099365234375 433.2894287109375 417.226287841796875 401.3453369140625 430.48590087890625 458.02716064453125 456.4736328125 435.707275390625 454.782989501953125 457.544097900390625 510.51470947265625 511.7337646484375 518.5985107421875 532.23193359375 526.5084228515625 491.374298095703125 500.246978759765625 486.286712646484375 507.31622314453125 525.64398193359375 534.361328125 539.97357177734375 541.21502685546875 538.57196044921875 526.45806884765625 553.615966796875 582.9781494140625 574.754150390625 624.865234375 622.6341552734375 617.24896240234375 624.1998291015625 616.781982421875 572.20404052734375 558.60980224609375 536.88555908203125 519.8475341796875 575.5673828125 571.98321533203125 594.29022216796875 519.54803466796875 481.05078125 509.37939453125 473.240325927734375 463.363311767578125 491.131927490234375 579.4324951171875 611.1397705078125 633.2545166015625 549.54998779296875 526.5360107421875 547.69488525390625 585.439453125 659.05706787109375 582.41265869140625 535.29931640625 579.36016845703125 545.01458740234375 551.765625 556.572021484375 558.24688720703125 574.40618896484375 561.52734375 594.8746337890625 614.92120361328125 654.76708984375 636.157958984375 677.86871337890625 696.19989013671875 694.79345703125 660.815673828125 705.5421142578125 763.77117919921875 730.193115234375 696.6131591796875 636.52886962890625 632.84881591796875 639.5404052734375 690.17401123046875 690.08642578125 730.3768310546875 748.88653564453125 763.27435302734375 807.75048828125 815.26708984375 855.80255126953125 904.4791259765625 914.03582763671875 918.65789794921875 928.88128662109375 939.77740478515625 953.4071044921875 953.6683349609375 946.341796875 942.1607666015625 948.2138671875 953.66497802734375 950.94622802734375 940.6251220703125 928.4580078125 924.7017822265625 951.9852294921875 948.849609375 943.4759521484375 932.1185302734375 925.2122802734375 937.933837890625 973.89154052734375 953.96307373046875 966.254638671875 998.51910400390625 1026.75927734375 1025.52587890625 1016.6878662109375 960.4708251953125 931.52203369140625 917.30755615234375 910.8876953125 917.1339111328125 918.3624267578125 887.165771484375 873.607421875 861.35833740234375 839.1641845703125 810.224365234375 726.45355224609375 -9999 -9999 -9999 -9999 -9999 -9999 -9999 -9999 -9999 -9999 -9999 -9999 -9999 -9999 -9999 -9999 -9999 -9999 -9999 -9999 -9999 -9999 -9999 -9999 -9999 -9999 -9999 -9999 -9999 -9999 -9999 -9999 -9999 -9999 -9999 -9999 -9999 -9999 -9999 -9999 -9999 -9999 -9999 -9999 -9999 -9999 -9999 -9999 -9999 -9999 -9999 -9999 -9999 -9999 -9999 -9999 -9999 -9999 -9999 -9999 -9999 -9999 -9999 -9999
204.103668212890625 240.6068572998046875 226.9117431640625 258.3892822265625 275.081298828125 290.349090576171875 271.580596923828125 282.52777099609375 280.036407470703125 285.337738037109375 296.778045654296875 307.820098876953125 328.45068359375 347.027008056640625 362.55804443359375 356.555816650390625 322.378692626953125 304.51373291015625 318.51104736328125 323.844146728515625 330.208953857421875 354.41943359375 401.748748779296875 442.031982421875 394.852783203125 409.662017822265625 438.335968017578125 398.38427734375 398.87591552734375 454.880462646484375 453.166717529296875 414.834014892578125 424.2978515625 447.951385498046875 489.14129638671875 507.078399658203125 484.706390380859375 530.6873779296875 557.70294189453125 529.93310546875 486.929931640625 464.5753173828125 488.415008544921875 503.255859375 508.49005126953125 521.30865478515625 517.8638916015625 508.80419921875 510.88946533203125 573.9644775390625 548.90924072265625 579.73333740234375 583.4036865234375 589.2716064453125 611.920166015625 625.84661865234375 629.716064453125 621.7498779296875 561.464111328125 574.74072265625 549.58251953125 532.6767578125 507.380340576171875 523.537841796875 543.28839111328125 473.0198974609375 486.362945556640625 488.57379150390625 484.40179443359375 546.8878173828125 598.02093505859375 645.10723876953125 642.29315185546875 701.2791748046875 663.601318359375 664.85107421875 672.62713623046875 717.47222900390625 710.747802734375 669.62127685546875 596.15338134765625 566.22271728515625 627.5933837890625 675.97943115234375 690.1759033203125 619.2738037109375 683.677734375 618.3660888671875 657.6114501953125 724.77020263671875 740.5745849609375 678.7789306640625 695.51824951171875 726.39532470703125 706.68194580078125 710.054443359375 699.2071533203125 768.7672119140625 759.3253173828125 683.90655517578125 661.5316162109375 663.175048828125 641.0869140625 661.31329345703125 669.07379150390625 698.192138671875 733.89569091796875 783.72686767578125 778.49993896484375 804.27777099609375 843.7562255859375 872.66278076171875 915.73663330078125 919.944091796875 925.482666015625 941.23529052734375 940.349853515625 937.895751953125 936.65948486328125 940.15740966796875 939.5238037109375 940.34039306640625 921.609375 917.06219482421875 907.7081298828125 915.57489013671875 919.75933837890625 920.1033935546875 919.7452392578125 922.825927734375 930.88427734375 959.263916015625 978.57177734375 974.47467041015625 990.366455078125 981.114501953125 963.743408203125 946.5008544921875 956.25146484375 951.60400390625 917.23760986328125 902.20489501953125 889.65924072265625 910.970947265625 876.38861083984375 869.98638916015625 826.83349609375 821.12713623046875 776.80609130859375 753.48846435546875 -9999 -9999 -9999 -9999 -9999 -9999 -9999 -9999 -9999 -9999 -9999 -9999 -9999 -9999 -9999 -9999 -9999 -9999 -9999 -9999 -9999 -9999 -9999 -9999 -9999 -9999 -9999 -9999 -9999 -9999 -9999 -9999 -9999 -9999 -9999 -9999 -9999 -9999 -9999 -9999 -9999 -9999 -9999 -9999 -9999 -9999 -9999 -9999 -9999 -9999 -9999 -9999 -9999 -9999 -9999 -9999 -9999 -9999 -9999 -9999 -9999 -9999 -9999 -9999 -9999
206.226654052734375 239.3982391357421875 238.119903564453125 284.60113525390625 301.075531005859375 316.733856201171875 293.406280517578125 292.47662353515625 301.537750244140625 286.561859130859375 300.829620361328125 311.2750244140625 344.01727294921875 370.5843505859375 367.16680908203125 359.281005859375 341.700164794921875 303.070526123046875 319.81756591796875 323.92608642578125 338.96844482421875 380.507598876953125 404.75091552734375 414.219696044921875 403.734893798828125 381.3028564453125 434.11083984375 387.028717041015625 393.8785400390625 435.57562255859375 476.7586669921875 439.68743896484375 404.468780517578125 447.090545654296875 500.772674560546875 454.18408203125 496.433013916015625 493.6571044921875 540.57122802734375 547.19305419921875 510.96392822265625 451.407958984375 508.9847412109375 520.79058837890625 524.69873046875 503.38580322265625 506.4140625 507.6312255859375 545.6212158203125 523.7513427734375 551.24749755859375 558.49853515625 576.21685791015625 583.51666259765625 598.28741455078125 596.8031005859375 621.60882568359375 597.80670166015625 573.449951171875 580.83709716796875 575.78472900390625 556.34979248046875 489.979248046875 502.843719482421875 477.419219970703125 451.1485595703125 540.94586181640625 561.04656982421875 575.095458984375 533.4095458984375 562.83056640625 609.66162109375 626.76611328125 663.29449462890625 705.90594482421875 723.49945068359375 718.255859375 735.87445068359375 711.96783447265625 644.4954833984375 577.3826904296875 588.5093994140625 607.65570068359375 641.37615966796875 697.9803466796875 709.019287109375 704.272216796875 702.24761962890625 744.5604248046875 748.60821533203125 755.08660888671875 710.53826904296875 723.0858154296875 742.47332763671875 729.2730712890625 747.266845703125 715.88970947265625 781.42852783203125 777.83740234375 699.40386962890625 704.0233154296875 668.69970703125 643.60711669921875 657.26171875 710.82293701171875 728.93218994140625 767.3104248046875 790.14447021484375 825.30767822265625 848.83746337890625 865.02496337890625 853.41265869140625 885.18194580078125 923.7393798828125 921.6038818359375 899.802978515625 904.265380859375 922.17071533203125 931.60125732421875 925.7679443359375 902.63385009765625 912.62841796875 901.902587890625 897.75634765625 900.124267578125 923.52923583984375 926.13763427734375 925.05340576171875 945.869384765625 946.3653564453125 976.66741943359375 995.77569580078125 997.7540283203125 980.35748291015625 941.91094970703125 941.33966064453125 909.46307373046875 896.65185546875 858.64727783203125 865.460693359375 926.09124755859375 880.3724365234375 891.4207763671875 884.2139892578125 847.6856689453125 861.17303466796875 807.85284423828125 744.41546630859375 711.6136474609375 -9999 -9999 -9999 -9999 -9999 -9999 -9999 -9999 -9999 -9999 -9999 -9999 -9999 -9999 -9999 -9999 -9999 -9999 -9999 -9999 -9999 -9999 -9999 -9999 -9999 -9999 -9999 -9999 -9999 -9999 -9999 -9999 -9999 -9999 -9999 -9999 -9999 -9999 -9999 -9999 -9999 -9999 -9999 -9999 -9999 -9999 -9999 -9999 -9999 -9999 -9999 -9999 -9999 -9999 -9999 -9999 -9999 -9999 -9999 -9999 -9999 -9999 -9999 -9999 -9999 -9999
240.7076568603515625 249.4051361083984375 257.033233642578125 284.71270751953125 309.8189697265625 336.203887939453125 348.084991455078125 327.961334228515625 340.84869384765625 324.255584716796875 319.24169921875 338.40057373046875 314.186614990234375 358.8699951171875 332.681732177734375 324.1539306640625 312.89239501953125 307.088104248046875 321.40069580078125 363.31268310546875 360.2130126953125 367.062164306640625 413.9508056640625 406.1197509765625 379.881988525390625 360.87408447265625 373.94329833984375 375.393218994140625 383.84161376953125 430.49444580078125 451.89739990234375 419.94287109375 393.616302490234375 462.480682373046875 455.189910888671875 458.43768310546875 498.88067626953125 474.3707275390625 532.490234375 526.5108642578125 533.198974609375 495.187164306640625 479.46826171875 514.43438720703125 536.552001953125 504.09051513671875 496.42120361328125 517.92071533203125 545.71539306640625 562.27105712890625 547.00555419921875 579.4124755859375 575.72259521484375 591.336181640625 598.48822021484375 585.6951904296875 595.40667724609375 589.28302001953125 577.67218017578125 585.75225830078125 537.4542236328125 512.18792724609375 495.90106201171875 470.285980224609375 460.683258056640625 549.8828125 571.1099853515625 644.9967041015625 648.7183837890625 606.43792724609375 657.2691650390625 704.62799072265625 699.59014892578125 709.5308837890625 711.63653564453125 712.0255126953125 718.26263427734375 735.4808349609375 708.0008544921875 647.10137939453125 625.958251953125 582.50494384765625 594.68212890625 628.35894775390625 635.96392822265625 621.3023681640625 666.30328369140625 685.0316162109375 698.6534423828125 700.522705078125 714.08856201171875 745.634033203125 718.80975341796875 746.79608154296875 744.8154296875 769.16265869140625 755.54290771484375 787.41448974609375 777.83160400390625 722.262939453125 692.815185546875 665.657958984375 646.20697021484375 695.659912109375 687.04290771484375 715.9483642578125 758.14727783203125 798.64208984375 818.5692138671875 862.06298828125 819.66619873046875 812.69976806640625 881.8631591796875 902.731689453125 880.49749755859375 885.39324951171875 905.59808349609375 929.22784423828125 904.60589599609375 889.4405517578125 887.20684814453125 888.38690185546875 896.92840576171875 914.07745361328125 928.40411376953125 947.39532470703125 963.043212890625 938.98748779296875 946.96246337890625 970.13037109375 991.236083984375 998.3426513671875 998.2169189453125 961.32745361328125 900.89471435546875 895.30767822265625 877.91778564453125 838.48077392578125 782.8485107421875 786.77545166015625 868.73895263671875 846.51873779296875 867.96221923828125 871.20037841796875 814.716552734375 847.4415283203125 763.08111572265625 688.800537109375 697.12939453125 -9999 -9999 -9999 -9999 -9999 -9999 -9999 -9999 -9999 -9999 -9999 -9999 -9999 -9999 -9999 -9999 -9999 -9999 -9999 -9999 -9999 -9999 -9999 -9999 -9999 -9999 -9999 -9999 -9999 -9999 -9999 -9999 -9999 -9999 -9999 -9999 -9999 -9999 -9999 -9999 -9999 -9999 -9999 -9999 -9999 -9999 -9999 -9999 -9999 -9999 -9999 -9999 -9999 -9999 -9999 -9999 -9999 -9999 -9999 -9999 -9999 -9999 -9999 -9999 -9999 -9999
258.235870361328125 240.0065155029296875 243.515716552734375 258.044403076171875 280.825714111328125 319.138885498046875 361.9556884765625 363.536224365234375 334.313720703125 321.53997802734375 328.65283203125 304.148834228515625 279.40679931640625 314.481658935546875 317.879638671875 296.946441650390625 315.067779541015625 348.47662353515625 340.576812744140625 391.563934326171875 372.039276123046875 399.61029052734375 416.193389892578125 395.318115234375 375.242034912109375 363.88238525390625 369.4696044921875 372.833099365234375 391.16778564453125 411.20703125 417.346160888671875 418.22479248046875 399.297210693359375 442.171844482421875 430.664642333984375 469.154510498046875 429.218719482421875 449.176422119140625 508.840301513671875 524.411865234375 481.27117919921875 466.61138916015625 464.6873779296875 505.5989990234375 527.6170654296875 486.3271484375 516.0390625 557.35723876953125 558.24871826171875 573.37176513671875 537.66455078125 561.70391845703125 568.1959228515625 562.95184326171875 572.60150146484375 605.0977783203125 581.92041015625 598.28204345703125 559.763427734375 523.59197998046875 505.6622314453125 485.912750244140625 459.599761962890625 460.544952392578125 534.80078125 600.008056640625 661.53045654296875 673.16851806640625 680.51434326171875 662.41790771484375 674.80047607421875 695.8966064453125 694.9666748046875 701.18304443359375 722.5208740234375 718.176513671875 722.85443115234375 738.08843994140625 717.128173828125 647.9649658203125 697.1131591796875 644.2999267578125 619.11322021484375 615.592529296875 637.469970703125 692.98736572265625 708.68988037109375 665.19384765625 661.6556396484375 697.5352783203125 711.58636474609375 707.8985595703125 723.27294921875 747.6060791015625 735.8485107421875 758.43621826171875 756.29327392578125 776.5711669921875 774.12457275390625 738.1807861328125 699.59710693359375 672.1207275390625 651.41943359375 691.9578857421875 726.48150634765625 710.078125 745.349853515625 771.88360595703125 807.17913818359375 797.576416015625 802.56884765625 836.1490478515625 881.47894287109375 861.6910400390625 849.3297119140625 890.5029296875 885.02972412109375 884.17755126953125 876.00701904296875 894.1800537109375 904.62744140625 928.36395263671875 928.26226806640625 941.12677001953125 938.2366943359375 942.69012451171875 923.32049560546875 878.12408447265625 903.31243896484375 914.65740966796875 933.82318115234375 925.50250244140625 932.02484130859375 889.84686279296875 832.98846435546875 831.62353515625 808.53021240234375 720.13848876953125 702.26068115234375 734.78662109375 810.36260986328125 830.24847412109375 857.7835693359375 768.8489990234375 738.41558837890625 771.15240478515625 739.56134033203125 653.2828369140625 -9999 -9999 -9999 -9999 -9999 -9999 -9999 -9999 -9999 -9999 -9999 -9999 -9999 -9999 -9999 -9999 -9999 -9999 -9999 -9999 -9999 -9999 -9999 -9999 -9999 -9999 -9999 -9999 -9999 -9999 -9999 -9999 -9999 -9999 -9999 -9999 -9999 -9999 -9999 -9999 -9999 -9999 -9999 -9999 -9999 -9999 -9999 -9999 -9999 -9999 -9999 -9999 -9999 -9999 -9999 -9999 -9999 -9999 -9999 -9999 -9999 -9999 -9999 -9999 -9999 -9999 -9999
217.467681884765625 195.5557861328125 213.2161865234375 259.810577392578125 292.122528076171875 294.6307373046875 324.829254150390625 333.582275390625 315.617828369140625 307.591827392578125 337.44207763671875 291.393798828125 263.5274658203125 266.1268310546875 309.7530517578125 346.581878662109375 345.55889892578125 354.35003662109375 368.094573974609375 385.01629638671875 401.240814208984375 384.495819091796875 383.7178955078125 374.328399658203125 352.28271484375 350.1846923828125 346.097503662109375 364.08282470703125 367.638153076171875 365.51556396484375 401.023101806640625 400.88818359375 376.34454345703125 392.4124755859375 425.890716552734375 423.822021484375 396.427825927734375 435.747650146484375 471.2818603515625 494.575714111328125 471.13250732421875 434.01251220703125 482.3558349609375 504.450897216796875 507.9249267578125 490.104156494140625 561.1060791015625 575.6275634765625 577.26416015625 531.75347900390625 522.7784423828125 535.19805908203125 545.58624267578125 559.7318115234375 572.7633056640625 606.67742919921875 556.35107421875 573.0792236328125 594.2359619140625 570.94879150390625 571.46868896484375 560.04254150390625 449.958526611328125 541.8233642578125 500.33758544921875 515.3375244140625 597.0653076171875 614.4176025390625 641.3653564453125 582.00970458984375 588.29852294921875 617.01641845703125 660.989990234375 689.02008056640625 680.480224609375 704.729248046875 737.11474609375 724.19573974609375 736.0216064453125 717.24676513671875 702.277099609375 716.05474853515625 681.5992431640625 656.5216064453125 611.09130859375 669.25189208984375 723.42333984375 718.47357177734375 711.4808349609375 669.79901123046875 682.0128173828125 694.33599853515625 719.90606689453125 724.42254638671875 726.96527099609375 745.09637451171875 746.19677734375 773.36138916015625 791.71807861328125 730.65142822265625 737.6124267578125 713.3897705078125 667.79412841796875 688.9061279296875 759.90234375 714.6090087890625 738.3204345703125 784.65911865234375 807.42864990234375 782.743408203125 805.7752685546875 837.00555419921875 818.56524658203125 816.39971923828125 864.6966552734375 848.36346435546875 867.359130859375 882.19525146484375 910.8529052734375 933.82244873046875 950.85369873046875 960.287109375 967.96142578125 903.7320556640625 876.3560791015625 902.7724609375 899.24322509765625 865.35113525390625 864.1318359375 858.71417236328125 857.78729248046875 841.64605712890625 878.61431884765625 839.60101318359375 774.0523681640625 787.31854248046875 765.9716796875 688.861083984375 645.1953125 664.48583984375 738.97027587890625 818.56683349609375 827.34173583984375 728.5787353515625 661.58978271484375 682.77880859375 678.034423828125 -9999 -9999 -9999 -9999 -9999 -9999 -9999 -9999 -9999 -9999 -9999 -9999 -9999 -9999 -9999 -9999 -9999 -9999 -9999 -9999 -9999 -9999 -9999 -9999 -9999 -9999 -9999 -9999 -9999 -9999 -9999 -9999 -9999 -9999 -9999 -9999 -9999 -9999 -9999 -9999 -9999 -9999 -9999 -9999 -9999 -9999 -9999 -9999 -9999 -9999 -9999 -9999 -9999 -9999 -9999 -9999 -9999 -9999 -9999 -9999 -9999 -9999 -9999 -9999 -9999 -9999 -9999 -9999
205.66729736328125 225.7748260498046875 209.2527313232421875 252.2622222900390625 271.363494873046875 267.324859619140625 311.895416259765625 307.9892578125 303.62200927734375 305.304046630859375 306.523345947265625 272.24462890625 266.18328857421875 301.12030029296875 355.04974365234375 390.098876953125 366.822662353515625 370.738311767578125 391.238433837890625 375.152374267578125 411.25762939453125 362.711456298828125 342.211822509765625 327.6669921875 330.47955322265625 383.043609619140625 412.443634033203125 394.564910888671875 358.6986083984375 368.087158203125 352.53814697265625 364.132537841796875 368.58795166015625 407.146240234375 392.7825927734375 409.807281494140625 394.183685302734375 412.418121337890625 438.137420654296875 411.307891845703125 419.0167236328125 424.3505859375 453.100189208984375 489.90362548828125 509.545166015625 490.2293701171875 527.3143310546875 524.0155029296875 509.802825927734375 498.006622314453125 515.0078125 549.5992431640625 567.989990234375 589.373779296875 586.9527587890625 596.6497802734375 570.36309814453125 511.47314453125 537.5938720703125 549.5184326171875 513.17950439453125 505.2757568359375 460.459686279296875 463.991668701171875 520.64532470703125 514.13031005859375 511.233306884765625 517.93011474609375 535.15521240234375 605.79766845703125 623.6824951171875 605.6624755859375 617.70050048828125 672.4180908203125 724.62518310546875 740.7630615234375 781.3851318359375 751.8216552734375 747.21923828125 746.3616943359375 750.98101806640625 752.10443115234375 708.867919921875 665.9000244140625 623.0738525390625 679.86712646484375 723.17144775390625 721.69439697265625 744.20159912109375 713.0457763671875 682.31781005859375 718.4324951171875 720.46466064453125 709.15814208984375 720.6436767578125 738.0623779296875 768.65972900390625 795.93231201171875 794.2332763671875 759.60369873046875 803.79364013671875 745.541748046875 690.860595703125 675.11126708984375 767.41351318359375 730.080322265625 763.2183837890625 819.639404296875 784.62322998046875 774.84893798828125 807.134521484375 780.98797607421875 787.47113037109375 845.41033935546875 884.4849853515625 902.6048583984375 911.9073486328125 903.71246337890625 928.1448974609375 947.28704833984375 967.14324951171875 967.9837646484375 907.30059814453125 874.2991943359375 858.2269287109375 878.4063720703125 856.12200927734375 854.04168701171875 826.55035400390625 826.9710693359375 820.23114013671875 807.61737060546875 786.4200439453125 738.9461669921875 697.40008544921875 691.79290771484375 675.19110107421875 646.100830078125 620.8978271484375 620.40020751953125 729.6221923828125 795.60418701171875 766.42340087890625 693.1326904296875 672.5731201171875 697.500732421875 -9999 -9999 -9999 -9999 -9999 -9999 -9999 -9999 -9999 -9999 -9999 -9999 -9999 -9999 -9999 -9999 -9999 -9999 -9999 -9999 -9999 -9999 -9999 -9999 -9999 -9999 -9999 -9999 -9999 -9999 -9999 -9999 -9999 -9999 -9999 -9999 -9999 -9999 -9999 -9999 -9999 -9999 -9999 -9999 -9999 -9999 -9999 -9999 -9999 -9999 -9999 -9999 -9999 -9999 -9999 -9999 -9999 -9999 -9999 -9999 -9999 -9999 -9999 -9999 -9999 -9999 -9999 -9999 -9999
190.42828369140625 250.094482421875 263.7032470703125 228.6143646240234375 231.5054168701171875 249.6505889892578125 266.70367431640625 289.21630859375 312.460968017578125 307.473297119140625 273.3807373046875 252.0818328857421875 267.817108154296875 286.631195068359375 327.7578125 372.92010498046875 385.24737548828125 369.54351806640625 377.67279052734375 363.691162109375 363.060791015625 370.082916259765625 323.559722900390625 321.840118408203125 354.591705322265625 381.76434326171875 421.8668212890625 415.627105712890625 430.750457763671875 394.402130126953125 413.801422119140625 357.4556884765625 357.35430908203125 375.825225830078125 378.162872314453125 371.00762939453125 403.336334228515625 397.891357421875 397.602081298828125 440.46600341796875 485.184814453125 432.097564697265625 448.03082275390625 485.59893798828125 498.817626953125 461.5528564453125 464.512664794921875 476.988494873046875 542.03009033203125 579.838134765625 534.499755859375 538.3741455078125 534.8077392578125 553.25067138671875 601.63629150390625 561.09271240234375 570.81103515625 554.5125732421875 517.22808837890625 475.39971923828125 435.3272705078125 455.395172119140625 493.274932861328125 486.1417236328125 597.4384765625 609.899658203125 632.04559326171875 610.53643798828125 641.6185302734375 659.5009765625 701.92669677734375 678.43316650390625 684.42431640625 657.964111328125 718.1595458984375 758.49566650390625 775.5205078125 761.32623291015625 756.007568359375 757.8310546875 752.84063720703125 764.0057373046875 718.471435546875 693.71661376953125 667.92388916015625 644.5838623046875 682.7159423828125 745.70782470703125 750.02923583984375 729.65374755859375 716.45404052734375 728.25 750.604248046875 717.6661376953125 726.1737060546875 760.1688232421875 765.04443359375 798.6746826171875 786.05841064453125 790.9232177734375 779.03509521484375 706.87646484375 653.84075927734375 736.44952392578125 763.1641845703125 743.1397705078125 760.32769775390625 792.9444580078125 757.05499267578125 763.9793701171875 766.78753662109375 793.03704833984375 840.113037109375 868.77777099609375 896.538330078125 910.4774169921875 920.95709228515625 939.7493896484375 950.34844970703125 954.618896484375 940.01708984375 917.84747314453125 874.24761962890625 850.6298828125 840.1121826171875 855.37310791015625 823.00616455078125 839.0350341796875 803.85430908203125 802.39892578125 788.89935302734375 770.14111328125 745.484375 679.73406982421875 645.20880126953125 638.766357421875 633.82086181640625 656.0557861328125 687.6097412109375 637.31201171875 707.642333984375 716.47125244140625 684.84088134765625 664.90924072265625 733.7489013671875 -9999 -9999 -9999 -9999 -9999 -9999 -9999 -9999 -9999 -9999 -9999 -9999 -9999 -9999 -9999 -9999 -9999 -9999 -9999 -9999 -9999 -9999 -9999 -9999 -9999 -9999 -9999 -9999 -9999 -9999 -9999 -9999 -9999 -9999 -9999 -9999 -9999 -9999 -9999 -9999 -9999 -9999 -9999 -9999 -9999 -9999 -9999 -9999 -9999 -9999 -9999 -9999 -9999 -9999 -9999 -9999 -9999 -9999 -9999 -9999 -9999 -9999 -9999 -9999 -9999 -9999 -9999 -9999 -9999 -9999
201.6378173828125 269.915252685546875 293.005157470703125 282.491180419921875 254.180572509765625 236.540740966796875 250.037353515625 274.214935302734375 287.170013427734375 284.55841064453125 258.099700927734375 257.190673828125 267.95660400390625 282.09747314453125 310.62353515625 360.565093994140625 404.208465576171875 403.4317626953125 353.91552734375 326.7744140625 329.429412841796875 331.480255126953125 360.9195556640625 333.92218017578125 343.904296875 380.968231201171875 388.808135986328125 432.982635498046875 414.595855712890625 424.7213134765625 423.9193115234375 419.4051513671875 421.69134521484375 406.810791015625 385.547576904296875 381.675689697265625 409.848236083984375 397.030609130859375 438.98541259765625 451.0225830078125 475.31646728515625 457.9879150390625 480.143402099609375 476.028472900390625 473.083831787109375 481.102783203125 498.146148681640625 556.67315673828125 573.64263916015625 558.38470458984375 542.7158203125 532.8968505859375 551.60015869140625 549.40472412109375 564.57366943359375 559.330078125 526.3946533203125 526.50360107421875 520.86456298828125 438.054779052734375 494.677093505859375 559.61175537109375 556.00848388671875 490.358062744140625 549.2564697265625 640.43115234375 673.368896484375 679.1473388671875 705.13385009765625 712.9840087890625 717.76251220703125 706.777099609375 713.6226806640625 665.1964111328125 732.942138671875 736.2398681640625 765.8426513671875 769.78179931640625 768.89898681640625 775.58984375 771.5364990234375 748.48016357421875 730.87860107421875 744.63958740234375 718.24884033203125 671.05352783203125 656.8204345703125 660.7672119140625 722.70306396484375 726.95416259765625 757.30908203125 752.30145263671875 760.407470703125 731.5465087890625 730.75323486328125 754.62615966796875 777.736328125 782.080078125 758.66180419921875 793.2252197265625 772.52752685546875 700.88653564453125 708.923583984375 779.70684814453125 759.3228759765625 740.69183349609375 734.9482421875 750.6103515625 769.84417724609375 786.75433349609375 816.44732666015625 821.1519775390625 844.95843505859375 870.8028564453125 888.7716064453125 900.19366455078125 917.19384765625 943.6016845703125 965.1011962890625 954.7618408203125 927.970947265625 882.014404296875 839.83941650390625 841.80645751953125 828.06085205078125 817.8017578125 806.60113525390625 811.74212646484375 787.4171142578125 803.38092041015625 764.75762939453125 757.8458251953125 679.18096923828125 632.81878662109375 629.26904296875 701.66644287109375 695.835693359375 751.0316162109375 785.9229736328125 702.794921875 667.30230712890625 639.86981201171875 639.057861328125 633.6002197265625 -9999 -9999 -9999 -9999 -9999 -9999 -9999 -9999 -9999 -9999 -9999 -9999 -9999 -9999 -9999 -9999 -9999 -9999 -9999 -9999 -9999 -9999 -9999 -9999 -9999 -9999 -9999 -9999 -9999 -9999 -9999 -9999 -9999 -9999 -9999 -9999 -9999 -9999 -9999 -9999 -9999 -9999 -9999 -9999 -9999 -9999 -9999 -9999 -9999 -9999 -9999 -9999 -9999 -9999 -9999 -9999 -9999 -9999 -9999 -9999 -9999 -9999 -9999 -9999 -9999 -9999 -9999 -9999 -9999 -9999 -9999
226.147125244140625 286.09503173828125 318.41363525390625 326.92718505859375 299.46234130859375 255.711456298828125 244.6067657470703125 241.5749969482421875 241.472503662109375 242.65838623046875 264.10107421875 295.139068603515625 307.164886474609375 339.81982421875 342.310333251953125 342.58001708984375 358.379730224609375 360.9317626953125 335.934661865234375 315.234710693359375 304.83880615234375 323.6920166015625 369.473236083984375 367.296539306640625 367.062347412109375 397.763671875 415.35546875 434.51788330078125 439.6507568359375 442.50286865234375 422.365814208984375 471.30438232421875 462.240692138671875 411.488983154296875 391.76739501953125 377.030303955078125 401.446533203125 452.5528564453125 403.859588623046875 413.865814208984375 439.4495849609375 453.613525390625 505.33984375 460.245208740234375 444.553619384765625 497.294952392578125 556.8414306640625 547.92572021484375 558.6768798828125 530.91888427734375 514.068115234375 545.09283447265625 566.39739990234375 564.81903076171875 580.4395751953125 540.67254638671875 492.04339599609375 517.80987548828125 529.42584228515625 469.0096435546875 455.2520751953125 533.9075927734375 613.54534912109375 607.18670654296875 635.34893798828125 613.069091796875 628.48980712890625 699.355224609375 704.26123046875 729.28936767578125 734.63134765625 712.8360595703125 701.1556396484375 690.712890625 703.10418701171875 705.754150390625 724.313720703125 759.774658203125 771.2388916015625 771.5054931640625 779.65814208984375 761.1561279296875 732.7777099609375 720.198486328125 725.0513916015625 709.37451171875 699.48370361328125 704.818603515625 670.51312255859375 657.86224365234375 702.4268798828125 761.7613525390625 772.29241943359375 749.35821533203125 744.2816162109375 739.44195556640625 768.6728515625 762.93121337890625 757.95074462890625 771.34619140625 779.89739990234375 702.037109375 697.66229248046875 755.89483642578125 738.757568359375 710.18536376953125 781.6495361328125 764.453857421875 808.96435546875 812.02593994140625 834.57904052734375 856.06683349609375 860.1722412109375 874.19281005859375 899.8897705078125 919.19085693359375 932.26507568359375 952.7451171875 952.47705078125 944.89581298828125 921.55377197265625 866.88238525390625 844.68377685546875 804.55682373046875 786.5350341796875 728.83404541015625 735.22503662109375 693.17041015625 722.01513671875 703.68646240234375 690.46539306640625 652.57000732421875 625.9498291015625 644.469482421875 690.9971923828125 761.78326416015625 774.67974853515625 832.0999755859375 829.840087890625 768.19091796875 713.00244140625 -9999 -9999 -9999 -9999 -9999 -9999 -9999 -9999 -9999 -9999 -9999 -9999 -9999 -9999 -9999 -9999 -9999 -9999 -9999 -9999 -9999 -9999 -9999 -9999 -9999 -9999 -9999 -9999 -9999 -9999 -9999 -9999 -9999 -9999 -9999 -9999 -9999 -9999 -9999 -9999 -9999 -9999 -9999 -9999 -9999 -9999 -9999 -9999 -9999 -9999 -9999 -9999 -9999 -9999 -9999 -9999 -9999 -9999 -9999 -9999 -9999 -9999 -9999 -9999 -9999 -9999 -9999 -9999 -9999 -9999 -9999 -9999 -9999 -9999
217.3136749267578125 274.79071044921875 322.6031494140625 330.709869384765625 309.389434814453125 301.274658203125 281.961639404296875 262.665008544921875 278.703857421875 285.6396484375 320.302032470703125 349.650726318359375 322.600311279296875 336.189239501953125 309.679046630859375 299.901702880859375 295.657684326171875 298.09967041015625 317.592010498046875 310.925994873046875 328.906524658203125 332.5394287109375 356.70928955078125 373.18743896484375 369.17486572265625 390.913330078125 405.11956787109375 424.130584716796875 423.98553466796875 429.972442626953125 454.780242919921875 472.84637451171875 463.015655517578125 417.688232421875 404.24609375 408.972015380859375 385.6337890625 440.34173583984375 463.6676025390625 436.09564208984375 425.5341796875 453.532806396484375 478.218597412109375 456.510345458984375 482.10467529296875 536.7803955078125 570.2713623046875 574.9215087890625 580.90057373046875 517.45965576171875 507.077667236328125 553.47039794921875 569.24444580078125 597.0263671875 600.36834716796875 513.51556396484375 493.556793212890625 458.8443603515625 468.0755615234375 425.550872802734375 484.25628662109375 551.3701171875 635.59063720703125 654.68743896484375 657.25244140625 672.5584716796875 649.6728515625 673.982421875 694.57464599609375 701.845458984375 713.43280029296875 709.51763916015625 687.85650634765625 683.56951904296875 713.206787109375 728.2384033203125 744.3375244140625 756.38824462890625 769.90740966796875 759.9873046875 759.54205322265625 760.475341796875 771.74481201171875 731.14453125 775.4581298828125 751.01483154296875 756.5863037109375 732.52801513671875 732.74114990234375 739.85565185546875 681.34429931640625 745.32501220703125 729.8140869140625 755.6900634765625 748.21209716796875 731.29034423828125 749.88555908203125 736.06597900390625 749.361328125 744.30633544921875 753.22125244140625 714.11163330078125 670.928466796875 679.9814453125 714.3780517578125 767.6463623046875 780.82366943359375 804.27752685546875 817.095947265625 812.97784423828125 824.6893310546875 844.375732421875 865.429443359375 905.2470703125 895.45709228515625 924.466552734375 944.13189697265625 948.916259765625 942.8358154296875 937.449951171875 927.7259521484375 892.01904296875 854.2115478515625 774.21734619140625 732.01947021484375 679.0587158203125 639.76715087890625 637.93194580078125 645.6046142578125 625.6285400390625 625.85528564453125 662.70086669921875 655.77825927734375 680.5699462890625 728.60235595703125 801.71514892578125 817.235595703125 838.4755859375 -9999 -9999 -9999 -9999 -9999 -9999 -9999 -9999 -9999 -9999 -9999 -9999 -9999 -9999 -9999 -9999 -9999 -9999 -9999 -9999 -9999 -9999 -9999 -9999 -9999 -9999 -9999 -9999 -9999 -9999 -9999 -9999 -9999 -9999 -9999 -9999 -9999 -9999 -9999 -9999 -9999 -9999 -9999 -9999 -9999 -9999 -9999 -9999 -9999 -9999 -9999 -9999 -9999 -9999 -9999 -9999 -9999 -9999 -9999 -9999 -9999 -9999 -9999 -9999 -9999 -9999 -9999 -9999 -9999 -9999 -9999 -9999 -9999 -9999 -9999 -9999 -9999
208.240234375 225.918182373046875 262.363128662109375 265.4747314453125 256.064178466796875 301.4493408203125 283.919647216796875 279.447052001953125 290.53802490234375 314.511962890625 297.496368408203125 283.434814453125 282.290618896484375 283.123260498046875 280.020111083984375 297.969635009765625 339.605712890625 309.45025634765625 347.923065185546875 348.55804443359375 314.490020751953125 318.248809814453125 336.276092529296875 360.423980712890625 354.085784912109375 373.34075927734375 410.632659912109375 420.673492431640625 417.361419677734375 418.62066650390625 426.248931884765625 438.913055419921875 451.41082763671875 449.497283935546875 459.76214599609375 439.300872802734375 399.877166748046875 418.50372314453125 451.22857666015625 457.496337890625 433.699920654296875 420.607818603515625 424.934814453125 447.928802490234375 497.501953125 517.77484130859375 535.9052734375 527.4949951171875 527.45111083984375 503.078521728515625 479.947601318359375 495.015960693359375 519.20220947265625 561.3631591796875 526.67340087890625 514.56640625 492.219635009765625 450.7174072265625 437.032684326171875 522.4285888671875 586.25445556640625 606.29437255859375 626.6007080078125 646.20343017578125 626.26580810546875 648.18804931640625 687.1500244140625 698.182861328125 699.48681640625 681.48248291015625 710.455322265625 718.1295166015625 712.48236083984375 713.9140625 713.48333740234375 728.31427001953125 731.06939697265625 718.67889404296875 730.1473388671875 734.470458984375 756.59588623046875 749.2108154296875 757.55035400390625 753.61376953125 753.71881103515625 766.13201904296875 759.34857177734375 774.24603271484375 764.59271240234375 761.4481201171875 733.1253662109375 698.22808837890625 720.2279052734375 740.59881591796875 728.21783447265625 718.64630126953125 716.60052490234375 718.19586181640625 746.96783447265625 746.46380615234375 737.2476806640625 720.858642578125 750.82757568359375 754.64190673828125 734.0499267578125 782.190673828125 818.62786865234375 804.89947509765625 812.68798828125 839.3150634765625 855.01190185546875 875.60052490234375 883.47906494140625 864.8511962890625 899.21588134765625 938.945068359375 945.4676513671875 938.516357421875 923.04254150390625 923.927001953125 914.7657470703125 901.14501953125 851.1783447265625 753.91534423828125 671.48388671875 582.9442138671875 659.5277099609375 663.9219970703125 656.5238037109375 683.6923828125 642.45806884765625 704.6251220703125 760.47857666015625 792.5831298828125 817.4788818359375 -9999 -9999 -9999 -9999 -9999 -9999 -9999 -9999 -9999 -9999 -9999 -9999 -9999 -9999 -9999 -9999 -9999 -9999 -9999 -9999 -9999 -9999 -9999 -9999 -9999 -9999 -9999 -9999 -9999 -9999 -9999 -9999 -9999 -9999 -9999 -9999 -9999 -9999 -9999 -9999 -9999 -9999 -9999 -9999 -9999 -9999 -9999 -9999 -9999 -9999 -9999 -9999 -9999 -9999 -9999 -9999 -9999 -9999 -9999 -9999 -9999 -9999 -9999 -9999 -9999 -9999 -9999 -9999 -9999 -9999 -9999 -9999 -9999 -9999 -9999 -9999 -9999 -9999 -9999 -9999
194.5627288818359375 208.9537200927734375 215.99810791015625 205.9991912841796875 234.2244720458984375 233.9704437255859375 246.644134521484375 258.791473388671875 255.1429595947265625 264.420379638671875 284.3238525390625 285.865997314453125 333.3223876953125 323.915679931640625 325.930633544921875 291.742584228515625 355.93402099609375 368.629486083984375 342.354217529296875 359.342254638671875 353.877593994140625 344.80657958984375 337.71649169921875 404.8963623046875 387.073455810546875 384.611236572265625 403.403289794921875 444.434906005859375 445.127960205078125 469.04730224609375 471.735992431640625 458.748443603515625 479.624114990234375 471.619598388671875 474.420745849609375 494.4708251953125 432.0860595703125 470.691436767578125 460.7000732421875 459.528564453125 458.5283203125 440.52728271484375 461.687164306640625 483.462158203125 510.1422119140625 510.445648193359375 534.42669677734375 513.65155029296875 527.464111328125 467.08172607421875 452.6287841796875 525.7318115234375 522.4783935546875 524.545654296875 451.06915283203125 459.0562744140625 426.25750732421875 432.26361083984375 477.770050048828125 541.2451171875 617.421630859375 604.6422119140625 626.299072265625 626.06988525390625 621.98187255859375 647.778076171875 667.43011474609375 669.77569580078125 697.98272705078125 667.8310546875 702.74066162109375 736.40362548828125 740.17633056640625 720.29681396484375 723.8341064453125 726.218017578125 733.5665283203125 744.54248046875 744.19549560546875 745.9072265625 769.36639404296875 757.434814453125 742.7508544921875 750.12542724609375 753.96759033203125 754.5198974609375 765.04901123046875 768.8057861328125 781.6553955078125 768.85821533203125 739.58837890625 738.93292236328125 708.36761474609375 706.375244140625 713.2677001953125 715.2945556640625 729.3983154296875 738.24755859375 753.2142333984375 786.15069580078125 745.0843505859375 736.71588134765625 776.228759765625 789.3533935546875 751.98797607421875 812.5396728515625 804.0408935546875 816.82049560546875 815.91973876953125 831.05206298828125 852.92486572265625 840.2620849609375 844.757080078125 875.0506591796875 910.826904296875 941.34375 933.81988525390625 903.57061767578125 900.0316162109375 893.59259033203125 862.39178466796875 877.54437255859375 854.58447265625 768.90679931640625 672.04486083984375 609.85888671875 688.6883544921875 740.44683837890625 742.69927978515625 744.0330810546875 736.1612548828125 737.114990234375 792.8380126953125 -9999 -9999 -9999 -9999 -9999 -9999 -9999 -9999 -9999 -9999 -9999 -9999 -9999 -9999 -9999 -9999 -9999 -9999 -9999 -9999 -9999 -9999 -9999 -9999 -9999 -9999 -9999 -9999 -9999 -9999 -9999 -9999 -9999 -9999 -9999 -9999 -9999 -9999 -9999 -9999 -9999 -9999 -9999 -9999 -9999 -9999 -9999 -9999 -9999 -9999 -9999 -9999 -9999 -9999 -9999 -9999 -9999 -9999 -9999 -9999 -9999 -9999 -9999 -9999 -9999 -9999 -9999 -9999 -9999 -9999 -9999 -9999 -9999 -9999 -9999 -9999 -9999 -9999 -9999 -9999 -9999 -9999
223.3273468017578125 213.5610504150390625 226.082855224609375 247.682403564453125 272.69549560546875 275.52545166015625 315.23175048828125 319.145538330078125 300.914642333984375 272.942901611328125 303.3529052734375 322.98797607421875 312.425689697265625 342.1968994140625 353.074859619140625 358.6602783203125 320.94708251953125 397.58367919921875 391.088836669921875 384.845733642578125 370.110443115234375 356.05078125 324.462921142578125 352.187286376953125 384.4232177734375 402.8551025390625 394.279998779296875 419.498870849609375 447.15057373046875 448.5572509765625 464.031280517578125 457.4298095703125 476.2022705078125 477.11077880859375 483.0919189453125 494.60687255859375 494.409332275390625 483.421051025390625 492.946502685546875 471.527191162109375 489.257110595703125 451.777008056640625 465.604583740234375 522.30810546875 494.043609619140625 517.17010498046875 491.00640869140625 517.2818603515625 492.211181640625 445.04449462890625 452.423828125 496.603057861328125 456.04034423828125 469.85888671875 415.32196044921875 423.866363525390625 429.88037109375 450.026153564453125 462.399810791015625 525.2325439453125 597.34228515625 587.00860595703125 608.77313232421875 615.0743408203125 606.34759521484375 614.2581787109375 622.49273681640625 639.7283935546875 668.7244873046875 665.51544189453125 716.90570068359375 722.59967041015625 759.47930908203125 739.91107177734375 755.230224609375 756.27740478515625 752.65008544921875 746.51116943359375 762.1585693359375 756.51116943359375 767.28509521484375 764.7940673828125 749.7698974609375 731.176513671875 734.23236083984375 753.422119140625 757.366455078125 767.4322509765625 774.54119873046875 766.611083984375 754.2252197265625 780.6046142578125 751.95880126953125 717.97296142578125 723.98809814453125 716.09490966796875 738.75445556640625 758.54302978515625 763.3785400390625 772.47991943359375 758.388427734375 745.97076416015625 770.2427978515625 776.84393310546875 771.30279541015625 818.31036376953125 791.9364013671875 831.9058837890625 828.428955078125 831.8984375 827.46197509765625 836.55584716796875 854.98095703125 893.84228515625 932.33331298828125 920.432373046875 889.94189453125 841.14593505859375 824.74639892578125 812.08172607421875 806.94036865234375 830.78564453125 839.4566650390625 755.6007080078125 690.58612060546875 585.33612060546875 652.84814453125 745.36627197265625 774.03875732421875 785.98785400390625 -9999 -9999 -9999 -9999 -9999 -9999 -9999 -9999 -9999 -9999 -9999 -9999 -9999 -9999 -9999 -9999 -9999 -9999 -9999 -9999 -9999 -9999 -9999 -9999 -9999 -9999 -9999 -9999 -9999 -9999 -9999 -9999 -9999 -9999 -9999 -9999 -9999 -9999 -9999 -9999 -9999 -9999 -9999 -9999 -9999 -9999 -9999 -9999 -9999 -9999 -9999 -9999 -9999 -9999 -9999 -9999 -9999 -9999 -9999 -9999 -9999 -9999 -9999 -9999 -9999 -9999 -9999 -9999 -9999 -9999 -9999 -9999 -9999 -9999 -9999 -9999 -9999 -9999 -9999 -9999 -9999 -9999 -9999 -9999 -9999
256.56787109375 230.4580841064453125 252.6163330078125 301.989959716796875 289.856842041015625 298.987152099609375 330.62847900390625 343.652801513671875 318.835113525390625 315.508331298828125 295.243377685546875 360.946014404296875 356.68682861328125 348.808624267578125 346.86083984375 356.23089599609375 349.86895751953125 322.392730712890625 361.79608154296875 386.668060302734375 398.5587158203125 384.437835693359375 350.626556396484375 335.3399658203125 365.9091796875 411.69854736328125 408.96954345703125 402.26025390625 430.093017578125 428.92864990234375 442.920928955078125 451.03125 455.81744384765625 471.89556884765625 474.86273193359375 489.294158935546875 508.251800537109375 504.274169921875 496.32330322265625 460.9825439453125 457.805206298828125 505.4346923828125 498.00360107421875 494.135650634765625 458.06787109375 495.552703857421875 504.977569580078125 493.830047607421875 444.93560791015625 431.108917236328125 415.997650146484375 438.7205810546875 433.307159423828125 416.06890869140625 415.78289794921875 477.864837646484375 462.842926025390625 505.754058837890625 507.659210205078125 497.25958251953125 565.86962890625 593.3607177734375 597.0501708984375 595.2371826171875 604.173095703125 608.977294921875 617.84283447265625 614.94000244140625 654.85699462890625 659.6109619140625 696.22161865234375 712.3701171875 730.390869140625 734.22821044921875 768.19921875 769.073974609375 782.21026611328125 775.40533447265625 774.7943115234375 787.0120849609375 772.7337646484375 740.790771484375 753.946533203125 732.71258544921875 772.7679443359375 773.0926513671875 783.6044921875 783.3233642578125 797.75628662109375 803.5240478515625 768.29742431640625 761.035888671875 770.43603515625 755.607666015625 745.59075927734375 718.1986083984375 731.2119140625 753.01373291015625 789.20013427734375 793.682373046875 779.47686767578125 775.00213623046875 798.40032958984375 785.02020263671875 770.4359130859375 779.99658203125 806.85394287109375 820.81982421875 805.2677001953125 824.0677490234375 838.9166259765625 873.711181640625 899.25555419921875 919.3404541015625 899.05859375 881.00982666015625 838.74822998046875 798.097412109375 787.2900390625 764.5001220703125 760.52313232421875 798.39068603515625 816.39471435546875 731.74090576171875 672.1541748046875 610.70587158203125 641.59295654296875 -9999 -9999 -9999 -9999 -9999 -9999 -9999 -9999 -9999 -9999 -9999 -9999 -9999 -9999 -9999 -9999 -9999 -9999 -9999 -9999 -9999 -9999 -9999 -9999 -9999 -9999 -9999 -9999 -9999 -9999 -9999 -9999 -9999 -9999 -9999 -9999 -9999 -9999 -9999 -9999 -9999 -9999 -9999 -9999 -9999 -9999 -9999 -9999 -9999 -9999 -9999 -9999 -9999 -9999 -9999 -9999 -9999 -9999 -9999 -9999 -9999 -9999 -9999 -9999 -9999 -9999 -9999 -9999 -9999 -9999 -9999 -9999 -9999 -9999 -9999 -9999 -9999 -9999 -9999 -9999 -9999 -9999 -9999 -9999 -9999 -9999 -9999 -9999
277.6873779296875 254.3590087890625 288.296356201171875 324.818695068359375 338.20538330078125 342.2955322265625 342.574371337890625 368.274627685546875 358.536590576171875 358.755584716796875 335.545166015625 363.42144775390625 395.333221435546875 386.399505615234375 384.1824951171875 374.90771484375 380.766021728515625 355.364471435546875 331.83001708984375 365.63165283203125 380.486419677734375 387.344940185546875 393.551300048828125 346.72802734375 391.805938720703125 397.694183349609375 432.565216064453125 423.332122802734375 436.1927490234375 456.654510498046875 444.20672607421875 446.23333740234375 443.650390625 450.03057861328125 457.3006591796875 480.39385986328125 491.91265869140625 508.206207275390625 477.8231201171875 428.79888916015625 427.16485595703125 468.4910888671875 454.31219482421875 451.666351318359375 455.182037353515625 435.166656494140625 488.54058837890625 460.4957275390625 418.68603515625 416.167999267578125 409.542236328125 440.374420166015625 412.55670166015625 442.12603759765625 466.205810546875 451.24029541015625 511.028839111328125 552.02423095703125 574.9691162109375 563.33526611328125 573.41217041015625 586.0986328125 611.00762939453125 589.21044921875 597.276123046875 592.86334228515625 608.673583984375 618.766357421875 644.34033203125 667.483642578125 658.13983154296875 673.88983154296875 679.6595458984375 708.41473388671875 746.9088134765625 791.93896484375 784.7672119140625 781.13580322265625 779.28369140625 785.91864013671875 770.6243896484375 750.22613525390625 717.97479248046875 735.49481201171875 780.563232421875 796.75042724609375 793.85205078125 806.38824462890625 804.3525390625 806.2294921875 786.0296630859375 769.14984130859375 796.49029541015625 783.9765625 755.2291259765625 723.1282958984375 726.1182861328125 761.9591064453125 775.3079833984375 785.0443115234375 783.49066162109375 782.82733154296875 793.16864013671875 789.30865478515625 774.12469482421875 797.1356201171875 795.36590576171875 792.7269287109375 807.716796875 835.41107177734375 869.77484130859375 906.893310546875 901.8399658203125 886.19305419921875 869.119873046875 869.2777099609375 827.99749755859375 754.5592041015625 736.109375 725.43756103515625 714.90753173828125 755.54852294921875 784.7943115234375 697.2547607421875 644.55615234375 -9999 -9999 -9999 -9999 -9999 -9999 -9999 -9999 -9999 -9999 -9999 -9999 -9999 -9999 -9999 -9999 -9999 -9999 -9999 -9999 -9999 -9999 -9999 -9999 -9999 -9999 -9999 -9999 -9999 -9999 -9999 -9999 -9999 -9999 -9999 -9999 -9999 -9999 -9999 -9999 -9999 -9999 -9999 -9999 -9999 -9999 -9999 -9999 -9999 -9999 -9999 -9999 -9999 -9999 -9999 -9999 -9999 -9999 -9999 -9999 -9999 -9999 -9999 -9999 -9999 -9999 -9999 -9999 -9999 -9999 -9999 -9999 -9999 -9999 -9999 -9999 -9999 -9999 -9999 -9999 -9999 -9999 -9999 -9999 -9999 -9999 -9999 -9999 -9999 -9999
279.663482666015625 297.5399169921875 279.289215087890625 333.33233642578125 345.1827392578125 361.0172119140625 363.898773193359375 396.682586669921875 401.027618408203125 399.367462158203125 384.197174072265625 358.558135986328125 407.890960693359375 413.425933837890625 413.18438720703125 412.41595458984375 420.4962158203125 403.018524169921875 363.832916259765625 339.452545166015625 373.456451416015625 371.02984619140625 380.847686767578125 388.395294189453125 362.38427734375 384.97076416015625 413.900604248046875 409.800750732421875 425.74542236328125 450.568084716796875 478.945556640625 509.16156005859375 503.603424072265625 507.82098388671875 518.0450439453125 506.383209228515625 493.485992431640625 505.7861328125 457.763580322265625 423.505035400390625 395.936614990234375 458.8421630859375 465.774261474609375 416.6151123046875 415.90081787109375 427.041046142578125 409.85333251953125 410.82769775390625 398.9395751953125 401.5130615234375 427.61395263671875 502.316009521484375 438.99053955078125 491.829345703125 516.403564453125 508.510528564453125 540.75494384765625 592.79473876953125 571.3765869140625 596.4749755859375 582.23480224609375 598.66387939453125 590.017822265625 582.03753662109375 585.6396484375 595.3515625 608.78936767578125 654.30938720703125 660.19207763671875 636.84442138671875 648.50225830078125 645.92034912109375 659.5206298828125 721.79217529296875 740.80426025390625 741.095458984375 742.84234619140625 756.4227294921875 789.5628662109375 780.661865234375 748.48529052734375 742.15020751953125 708.4075927734375 744.27508544921875 732.2095947265625 785.8873291015625 793.226318359375 799.9541015625 830.4212646484375 806.8819580078125 789.7532958984375 778.36248779296875 781.22833251953125 792.510986328125 751.7550048828125 731.74755859375 723.09100341796875 738.31591796875 730.63287353515625 776.5848388671875 796.12322998046875 781.92877197265625 777.24224853515625 779.74176025390625 773.67193603515625 776.6982421875 804.45892333984375 830.83709716796875 842.26861572265625 856.31121826171875 860.31817626953125 902.1866455078125 861.32635498046875 820.1737060546875 843.14154052734375 868.23193359375 837.73626708984375 721.4246826171875 706.11077880859375 673.177734375 674.89337158203125 722.5128173828125 -9999 -9999 -9999 -9999 -9999 -9999 -9999 -9999 -9999 -9999 -9999 -9999 -9999 -9999 -9999 -9999 -9999 -9999 -9999 -9999 -9999 -9999 -9999 -9999 -9999 -9999 -9999 -9999 -9999 -9999 -9999 -9999 -9999 -9999 -9999 -9999 -9999 -9999 -9999 -9999 -9999 -9999 -9999 -9999 -9999 -9999 -9999 -9999 -9999 -9999 -9999 -9999 -9999 -9999 -9999 -9999 -9999 -9999 -9999 -9999 -9999 -9999 -9999 -9999 -9999 -9999 -9999 -9999 -9999 -9999 -9999 -9999 -9999 -9999 -9999 -9999 -9999 -9999 -9999 -9999 -9999 -9999 -9999 -9999 -9999 -9999 -9999 -9999 -9999 -9999 -9999 -9999 -9999
268.642181396484375 294.85888671875 285.856719970703125 298.725006103515625 330.8648681640625 336.363494873046875 342.44183349609375 360.684539794921875 381.34637451171875 381.819183349609375 383.40863037109375 388.53955078125 405.342437744140625 410.524017333984375 434.0291748046875 438.55322265625 442.145904541015625 407.452392578125 378.229217529296875 378.0997314453125 400.48016357421875 411.850250244140625 393.885986328125 391.25250244140625 411.169158935546875 395.737213134765625 426.615814208984375 455.2945556640625 435.3983154296875 471.15692138671875 517.249755859375 524.9051513671875 508.576385498046875 504.950408935546875 504.389312744140625 480.372283935546875 495.712860107421875 518.507568359375 473.309234619140625 416.04205322265625 393.64019775390625 395.832000732421875 403.152191162109375 389.31939697265625 390.6947021484375 402.54278564453125 431.08642578125 416.644317626953125 474.880462646484375 455.73297119140625 462.97119140625 475.510986328125 463.242706298828125 444.1134033203125 497.2320556640625 509.6290283203125 538.52911376953125 586.4737548828125 587.7958984375 591.371826171875 602.3223876953125 571.8004150390625 573.4814453125 586.08642578125 579.1378173828125 600.141357421875 612.13372802734375 610.863525390625 640.32452392578125 617.359130859375 621.9326171875 659.34906005859375 675.25927734375 694.82427978515625 700.2203369140625 745.43798828125 726.47540283203125 750.64984130859375 752.1805419921875 739.7958984375 728.98699951171875 712.14990234375 685.910400390625 745.3487548828125 731.84283447265625 784.08306884765625 792.31103515625 811.59503173828125 842.6007080078125 825.772216796875 807.30731201171875 807.19183349609375 777.67132568359375 797.0574951171875 771.620849609375 734.2451171875 723.97119140625 738.73626708984375 742.28839111328125 773.12115478515625 797.01055908203125 768.4302978515625 787.5120849609375 765.5775146484375 803.989501953125 810.286376953125 808.8431396484375 829.38385009765625 758.32818603515625 717.1829833984375 766.05841064453125 774.48834228515625 720.86175537109375 760.98907470703125 779.90625 766.400146484375 758.517822265625 740.7506103515625 660.793701171875 -9999 -9999 -9999 -9999 -9999 -9999 -9999 -9999 -9999 -9999 -9999 -9999 -9999 -9999 -9999 -9999 -9999 -9999 -9999 -9999 -9999 -9999 -9999 -9999 -9999 -9999 -9999 -9999 -9999 -9999 -9999 -9999 -9999 -9999 -9999 -9999 -9999 -9999 -9999 -9999 -9999 -9999 -9999 -9999 -9999 -9999 -9999 -9999 -9999 -9999 -9999 -9999 -9999 -9999 -9999 -9999 -9999 -9999 -9999 -9999 -9999 -9999 -9999 -9999 -9999 -9999 -9999 -9999 -9999 -9999 -9999 -9999 -9999 -9999 -9999 -9999 -9999 -9999 -9999 -9999 -9999 -9999 -9999 -9999 -9999 -9999 -9999 -9999 -9999 -9999 -9999 -9999 -9999 -9999 -9999 -9999
259.059326171875 281.47198486328125 276.037689208984375 286.21624755859375 301.023284912109375 303.86456298828125 318.556427001953125 340.7471923828125 360.1314697265625 361.1473388671875 378.50018310546875 385.9208984375 386.659210205078125 397.05804443359375 412.05584716796875 425.145172119140625 424.739349365234375 434.5201416015625 430.21014404296875 403.08514404296875 428.87017822265625 451.6385498046875 422.7313232421875 403.48297119140625 409.057281494140625 433.177154541015625 445.89935302734375 490.01513671875 482.1376953125 496.10003662109375 472.190826416015625 458.774871826171875 452.90472412109375 458.07421875 454.741729736328125 473.419647216796875 519.58642578125 464.123321533203125 437.636993408203125 422.126312255859375 383.62249755859375 405.046478271484375 397.0789794921875 424.459320068359375 433.94085693359375 429.67864990234375 479.833770751953125 461.801788330078125 472.685028076171875 506.7091064453125 479.6483154296875 494.070281982421875 515.57293701171875 457.97698974609375 460.375213623046875 488.614776611328125 517.158935546875 540.9190673828125 589.50360107421875 575.08917236328125 573.8935546875 571.67877197265625 571.6370849609375 569.900390625 572.6668701171875 581.438720703125 590.1463623046875 603.4256591796875 613.62371826171875 606.291748046875 643.06488037109375 679.08453369140625 678.752685546875 670.8270263671875 684.4140625 715.657470703125 732.47967529296875 720.84637451171875 732.2227783203125 724.76513671875 709.50274658203125 681.8094482421875 691.81884765625 750.3411865234375 745.702392578125 788.73876953125 787.47650146484375 783.12640380859375 826.153076171875 857.4779052734375 827.939208984375 805.98883056640625 791.3270263671875 801.8218994140625 781.63006591796875 763.70611572265625 741.02337646484375 726.171875 741.406005859375 780.09466552734375 777.92974853515625 764.3685302734375 768.69708251953125 768.076904296875 810.08978271484375 843.25506591796875 812.06494140625 795.694580078125 750.35498046875 660.83319091796875 645.52459716796875 673.3819580078125 615.832275390625 633.60333251953125 674.69488525390625 655.72149658203125 689.4713134765625 -9999 -9999 -9999 -9999 -9999 -9999 -9999 -9999 -9999 -9999 -9999 -9999 -9999 -9999 -9999 -9999 -9999 -9999 -9999 -9999 -9999 -9999 -9999 -9999 -9999 -9999 -9999 -9999 -9999 -9999 -9999 -9999 -9999 -9999 -9999 -9999 -9999 -9999 -9999 -9999 -9999 -9999 -9999 -9999 -9999 -9999 -9999 -9999 -9999 -9999 -9999 -9999 -9999 -9999 -9999 -9999 -9999 -9999 -9999 -9999 -9999 -9999 -9999 -9999 -9999 -9999 -9999 -9999 -9999 -9999 -9999 -9999 -9999 -9999 -9999 -9999 -9999 -9999 -9999 -9999 -9999 -9999 -9999 -9999 -9999 -9999 -9999 -9999 -9999 -9999 -9999 -9999 -9999 -9999 -9999 -9999 -9999 -9999
259.198150634765625 262.313446044921875 267.468170166015625 278.656524658203125 296.672760009765625 322.699462890625 325.59954833984375 329.692169189453125 356.661468505859375 360.62396240234375 367.750244140625 376.41949462890625 377.0106201171875 385.933929443359375 393.67730712890625 398.628936767578125 407.375640869140625 424.82403564453125 440.112396240234375 442.0413818359375 425.945281982421875 442.0848388671875 452.7349853515625 433.705657958984375 433.6424560546875 443.953765869140625 444.3460693359375 485.829986572265625 485.40704345703125 453.491241455078125 435.64337158203125 427.055572509765625 436.88134765625 473.3587646484375 500.379364013671875 480.29998779296875 476.791229248046875 451.8143310546875 395.520416259765625 386.984283447265625 390.15203857421875 411.5841064453125 422.8006591796875 450.279083251953125 454.8665771484375 479.294342041015625 541.86444091796875 548.87738037109375 537.2899169921875 548.1575927734375 522.438232421875 526.09326171875 507.055938720703125 471.46466064453125 493.63214111328125 538.98388671875 529.44647216796875 571.05841064453125 582.39324951171875 571.3438720703125 567.9462890625 565.92254638671875 580.58697509765625 600.78741455078125 595.632080078125 610.48895263671875 597.4918212890625 597.5235595703125 624.75433349609375 649.00494384765625 630.6307373046875 666.10247802734375 713.22772216796875 729.8282470703125 711.0054931640625 693.839599609375 697.217041015625 681.1658935546875 721.068115234375 701.26544189453125 691.10736083984375 665.29052734375 738.15850830078125 740.4949951171875 737.48309326171875 757.8653564453125 804.88671875 771.4354248046875 807.90362548828125 845.2623291015625 842.61480712890625 814.04302978515625 802.94061279296875 795.2197265625 793.44036865234375 794.64459228515625 751.153076171875 736.4859619140625 735.13092041015625 754.18084716796875 746.2816162109375 754.5264892578125 771.610595703125 782.66522216796875 826.41058349609375 813.10986328125 804.74005126953125 710.0357666015625 615.72039794921875 558.037353515625 518.91156005859375 519.04742431640625 514.98223876953125 531.95819091796875 -9999 -9999 -9999 -9999 -9999 -9999 -9999 -9999 -9999 -9999 -9999 -9999 -9999 -9999 -9999 -9999 -9999 -9999 -9999 -9999 -9999 -9999 -9999 -9999 -9999 -9999 -9999 -9999 -9999 -9999 -9999 -9999 -9999 -9999 -9999 -9999 -9999 -9999 -9999 -9999 -9999 -9999 -9999 -9999 -9999 -9999 -9999 -9999 -9999 -9999 -9999 -9999 -9999 -9999 -9999 -9999 -9999 -9999 -9999 -9999 -9999 -9999 -9999 -9999 -9999 -9999 -9999 -9999 -9999 -9999 -9999 -9999 -9999 -9999 -9999 -9999 -9999 -9999 -9999 -9999 -9999 -9999 -9999 -9999 -9999 -9999 -9999 -9999 -9999 -9999 -9999 -9999 -9999 -9999 -9999 -9999 -9999 -9999 -9999 -9999 -9999
282.8746337890625 292.2322998046875 291.84967041015625 311.235992431640625 329.40765380859375 356.127716064453125 354.186309814453125 352.966156005859375 385.0225830078125 389.848358154296875 394.8587646484375 402.0191650390625 383.139739990234375 386.25537109375 388.31439208984375 391.67724609375 405.773590087890625 425.146636962890625 432.123077392578125 437.116363525390625 425.1220703125 409.823455810546875 409.269622802734375 420.387725830078125 434.908416748046875 459.519775390625 461.900115966796875 467.1890869140625 442.895263671875 421.10162353515625 415.24639892578125 429.711456298828125 440.027557373046875 472.283660888671875 465.228515625 431.061309814453125 415.07958984375 396.087371826171875 381.888946533203125 391.394775390625 405.35479736328125 431.689849853515625 465.04620361328125 476.036865234375 511.71624755859375 528.78350830078125 548.76434326171875 562.0926513671875 574.1915283203125 577.381591796875 549.99957275390625 502.85345458984375 473.935882568359375 477.66412353515625 526.80059814453125 556.92388916015625 559.5791015625 581.66802978515625 584.1134033203125 587.52471923828125 562.2303466796875 561.63507080078125 570.30401611328125 586.706787109375 596.48004150390625 611.75811767578125 605.03961181640625 616.4705810546875 634.65582275390625 661.2789306640625 651.28857421875 672.35772705078125 730.2528076171875 719.73345947265625 705.7554931640625 698.6527099609375 663.13958740234375 656.045166015625 673.872802734375 680.758056640625 653.96978759765625 694.64691162109375 709.9649658203125 696.62969970703125 731.45208740234375 743.23052978515625 806.33721923828125 754.78076171875 776.46112060546875 800.01824951171875 838.42352294921875 824.833740234375 806.088134765625 808.00384521484375 808.713134765625 802.3138427734375 776.48114013671875 754.03759765625 742.1514892578125 746.56854248046875 766.40948486328125 762.6263427734375 809.2159423828125 808.41387939453125 795.5626220703125 782.2955322265625 760.11090087890625 674.159423828125 572.687744140625 470.45428466796875 426.15625 -9999 -9999 -9999 -9999 -9999 -9999 -9999 -9999 -9999 -9999 -9999 -9999 -9999 -9999 -9999 -9999 -9999 -9999 -9999 -9999 -9999 -9999 -9999 -9999 -9999 -9999 -9999 -9999 -9999 -9999 -9999 -9999 -9999 -9999 -9999 -9999 -9999 -9999 -9999 -9999 -9999 -9999 -9999 -9999 -9999 -9999 -9999 -9999 -9999 -9999 -9999 -9999 -9999 -9999 -9999 -9999 -9999 -9999 -9999 -9999 -9999 -9999 -9999 -9999 -9999 -9999 -9999 -9999 -9999 -9999 -9999 -9999 -9999 -9999 -9999 -9999 -9999 -9999 -9999 -9999 -9999 -9999 -9999 -9999 -9999 -9999 -9999 -9999 -9999 -9999 -9999 -9999 -9999 -9999 -9999 -9999 -9999 -9999 -9999 -9999 -9999 -9999 -9999 -9999
303.602691650390625 304.281494140625 341.694061279296875 352.730255126953125 366.313690185546875 370.5511474609375 379.15753173828125 385.60137939453125 379.017791748046875 396.57421875 415.578033447265625 410.3983154296875 392.895263671875 400.606719970703125 416.084381103515625 407.47039794921875 414.79058837890625 420.068389892578125 429.0977783203125 433.0177001953125 418.9769287109375 384.84588623046875 382.193634033203125 404.37451171875 417.35491943359375 432.5965576171875 447.817230224609375 434.190185546875 417.165374755859375 409.1888427734375 427.311004638671875 434.194915771484375 444.64068603515625 414.8206787109375 411.510711669921875 417.0294189453125 385.16802978515625 377.500762939453125 396.186187744140625 422.60162353515625 435.805938720703125 435.503265380859375 458.453948974609375 467.109039306640625 501.432861328125 523.94989013671875 552.43548583984375 550.82672119140625 567.35723876953125 534.58270263671875 548.28021240234375 525.24041748046875 512.2799072265625 529.91705322265625 550.717529296875 548.6707763671875 576.94512939453125 598.87554931640625 589.4876708984375 572.986083984375 561.5806884765625 555.432373046875 564.66943359375 575.09246826171875 587.133544921875 591.82861328125 610.399658203125 612.7413330078125 639.0462646484375 622.0938720703125 666.6658935546875 698.42706298828125 744.45257568359375 735.7142333984375 740.401611328125 712.10137939453125 696.58624267578125 660.1153564453125 659.73333740234375 647.598876953125 658.19873046875 710.5640869140625 683.2989501953125 709.58050537109375 727.56298828125 732.4862060546875 794.85595703125 741.9017333984375 789.84228515625 813.12066650390625 843.24627685546875 823.85028076171875 817.29583740234375 816.47412109375 805.53741455078125 833.07855224609375 794.79296875 787.70556640625 760.453369140625 753.55072021484375 798.20758056640625 795.28875732421875 812.6619873046875 813.36297607421875 757.3389892578125 749.8455810546875 732.16546630859375 632.51727294921875 520.53228759765625 -9999 -9999 -9999 -9999 -9999 -9999 -9999 -9999 -9999 -9999 -9999 -9999 -9999 -9999 -9999 -9999 -9999 -9999 -9999 -9999 -9999 -9999 -9999 -9999 -9999 -9999 -9999 -9999 -9999 -9999 -9999 -9999 -9999 -9999 -9999 -9999 -9999 -9999 -9999 -9999 -9999 -9999 -9999 -9999 -9999 -9999 -9999 -9999 -9999 -9999 -9999 -9999 -9999 -9999 -9999 -9999 -9999 -9999 -9999 -9999 -9999 -9999 -9999 -9999 -9999 -9999 -9999 -9999 -9999 -9999 -9999 -9999 -9999 -9999 -9999 -9999 -9999 -9999 -9999 -9999 -9999 -9999 -9999 -9999 -9999 -9999 -9999 -9999 -9999 -9999 -9999 -9999 -9999 -9999 -9999 -9999 -9999 -9999 -9999 -9999 -9999 -9999 -9999 -9999 -9999 -9999
311.9495849609375 338.714263916015625 318.78021240234375 330.673583984375 335.174957275390625 349.49542236328125 371.87774658203125 386.221893310546875 397.70123291015625 397.583892822265625 413.975250244140625 418.860687255859375 408.4339599609375 379.143646240234375 396.104248046875 404.639129638671875 413.47894287109375 405.453399658203125 409.137054443359375 401.492156982421875 393.12725830078125 385.068603515625 370.221343994140625 380.515350341796875 385.292083740234375 398.4957275390625 402.829193115234375 409.191253662109375 405.021697998046875 423.3155517578125 446.5626220703125 441.651214599609375 427.4014892578125 398.52093505859375 382.3494873046875 378.743682861328125 381.432952880859375 393.864471435546875 415.861846923828125 415.1544189453125 416.527862548828125 444.406158447265625 499.19769287109375 522.452880859375 543.0726318359375 550.76361083984375 538.3408203125 549.423828125 558.7547607421875 525.04345703125 525.39288330078125 514.541259765625 518.8228759765625 526.19073486328125 551.59661865234375 523.4718017578125 580.1087646484375 611.71881103515625 586.07135009765625 573.78607177734375 572.03271484375 552.986572265625 558.66558837890625 572.56201171875 587.43609619140625 612.22601318359375 617.0333251953125 600.0289306640625 603.69732666015625 612.61083984375 654.0455322265625 706.21661376953125 755.98785400390625 746.60357666015625 709.66259765625 730.75494384765625 728.412353515625 679.06292724609375 639.30487060546875 636.12738037109375 658.52813720703125 684.16033935546875 668.9007568359375 663.448974609375 677.438232421875 702.42779541015625 710.53662109375 739.34051513671875 783.42938232421875 826.9769287109375 839.45867919921875 859.560791015625 835.090576171875 821.560791015625 817.50543212890625 820.269775390625 804.3016357421875 802.23651123046875 798.83367919921875 750.62969970703125 770.3521728515625 807.1298828125 824.6492919921875 781.6226806640625 709.9110107421875 661.6837158203125 641.9158935546875 556.11907958984375 442.548797607421875 -9999 -9999 -9999 -9999 -9999 -9999 -9999 -9999 -9999 -9999 -9999 -9999 -9999 -9999 -9999 -9999 -9999 -9999 -9999 -9999 -9999 -9999 -9999 -9999 -9999 -9999 -9999 -9999 -9999 -9999 -9999 -9999 -9999 -9999 -9999 -9999 -9999 -9999 -9999 -9999 -9999 -9999 -9999 -9999 -9999 -9999 -9999 -9999 -9999 -9999 -9999 -9999 -9999 -9999 -9999 -9999 -9999 -9999 -9999 -9999 -9999 -9999 -9999 -9999 -9999 -9999 -9999 -9999 -9999 -9999 -9999 -9999 -9999 -9999 -9999 -9999 -9999 -9999 -9999 -9999 -9999 -9999 -9999 -9999 -9999 -9999 -9999 -9999 -9999 -9999 -9999 -9999 -9999 -9999 -9999 -9999 -9999 -9999 -9999 -9999 -9999 -9999 -9999 -9999 -9999 -9999
297.268157958984375 300.041168212890625 319.945281982421875 337.918670654296875 339.290985107421875 350.038909912109375 374.883697509765625 398.149200439453125 410.083221435546875 416.61474609375 406.5538330078125 401.883697509765625 407.086334228515625 368.162750244140625 329.633819580078125 322.760528564453125 352.8760986328125 336.3182373046875 386.829376220703125 399.193817138671875 378.014312744140625 391.56500244140625 360.401947021484375 368.57781982421875 387.52398681640625 373.689361572265625 378.5423583984375 408.244659423828125 426.380828857421875 400.820709228515625 406.18084716796875 414.180908203125 390.42059326171875 390.388519287109375 374.4473876953125 384.56689453125 430.223297119140625 406.967315673828125 399.6807861328125 412.241668701171875 442.04779052734375 445.143585205078125 501.653594970703125 544.54669189453125 547.4591064453125 541.68743896484375 532.41815185546875 548.828857421875 532.18780517578125 506.028045654296875 502.731231689453125 497.4144287109375 510.93194580078125 529.27691650390625 529.86041259765625 519.165283203125 574.63824462890625 596.17218017578125 573.31561279296875 575.25213623046875 564.95562744140625 552.8377685546875 548.86529541015625 564.4063720703125 581.9815673828125 585.71759033203125 582.47076416015625 597.56829833984375 625.93804931640625 632.98211669921875 669.49517822265625 665.77850341796875 715.71771240234375 727.07562255859375 692.94561767578125 688.66278076171875 724.72491455078125 677.8280029296875 647.76025390625 635.9151611328125 650.25689697265625 648.5284423828125 652.0667724609375 667.72686767578125 713.08258056640625 744.10296630859375 784.134765625 773.03143310546875 797.7713623046875 853.5640869140625 854.39862060546875 864.04742431640625 826.4420166015625 817.61822509765625 826.50360107421875 822.4390869140625 815.749267578125 815.4744873046875 823.9901123046875 795.01123046875 789.53076171875 814.6929931640625 841.8956298828125 761.19091796875 699.222412109375 593.91015625 548.03997802734375 566.1268310546875 447.018798828125 -9999 -9999 -9999 -9999 -9999 -9999 -9999 -9999 -9999 -9999 -9999 -9999 -9999 -9999 -9999 -9999 -9999 -9999 -9999 -9999 -9999 -9999 -9999 -9999 -9999 -9999 -9999 -9999 -9999 -9999 -9999 -9999 -9999 -9999 -9999 -9999 -9999 -9999 -9999 -9999 -9999 -9999 -9999 -9999 -9999 -9999 -9999 -9999 -9999 -9999 -9999 -9999 -9999 -9999 -9999 -9999 -9999 -9999 -9999 -9999 -9999 -9999 -9999 -9999 -9999 -9999 -9999 -9999 -9999 -9999 -9999 -9999 -9999 -9999 -9999 -9999 -9999 -9999 -9999 -9999 -9999 -9999 -9999 -9999 -9999 -9999 -9999 -9999 -9999 -9999 -9999 -9999 -9999 -9999 -9999 -9999 -9999 -9999 -9999 -9999 -9999 -9999 -9999 -9999 -9999 -9999
335.095367431640625 342.907928466796875 365.421478271484375 360.973968505859375 378.04937744140625 383.482818603515625 372.887115478515625 398.949127197265625 404.94140625 407.255035400390625 389.1888427734375 378.70501708984375 379.459503173828125 314.9127197265625 340.72137451171875 403.717010498046875 403.77972412109375 383.340972900390625 362.602386474609375 364.51141357421875 349.900360107421875 363.874481201171875 353.869232177734375 358.584808349609375 366.938812255859375 368.8551025390625 397.18731689453125 423.38909912109375 390.93115234375 390.8216552734375 381.015106201171875 399.001251220703125 385.45196533203125 374.81695556640625 388.68292236328125 413.730255126953125 444.573516845703125 438.545135498046875 419.572265625 440.4658203125 484.050689697265625 520.7216796875 534.3602294921875 542.07232666015625 539.26739501953125 521.35980224609375 535.080078125 547.54864501953125 524.778564453125 484.95428466796875 488.20355224609375 517.2274169921875 517.6024169921875 519.828125 505.908294677734375 520.5841064453125 576.0303955078125 580.43182373046875 572.56396484375 549.145263671875 584.30474853515625 556.62353515625 526.51904296875 584.0628662109375 622.9248046875 619.1402587890625 611.66845703125 639.29473876953125 615.8851318359375 645.2864990234375 633.1405029296875 697.300537109375 718.3157958984375 686.933349609375 711.81561279296875 686.2349853515625 672.43768310546875 678.91363525390625 646.058837890625 618.734619140625 633.54913330078125 649.89276123046875 658.654296875 696.2822265625 689.51531982421875 727.330322265625 760.08746337890625 784.2320556640625 754.06768798828125 830.84991455078125 875.951904296875 829.6070556640625 822.69171142578125 807.21246337890625 804.3392333984375 831.11871337890625 832.8902587890625 825.92291259765625 846.7569580078125 809.74591064453125 741.29901123046875 772.30474853515625 776.26934814453125 733.53350830078125 627.8004150390625 557.10614013671875 475.535858154296875 412.245269775390625 363.71435546875 -9999 -9999 -9999 -9999 -9999 -9999 -9999 -9999 -9999 -9999 -9999 -9999 -9999 -9999 -9999 -9999 -9999 -9999 -9999 -9999 -9999 -9999 -9999 -9999 -9999 -9999 -9999 -9999 -9999 -9999 -9999 -9999 -9999 -9999 -9999 -9999 -9999 -9999 -9999 -9999 -9999 -9999 -9999 -9999 -9999 -9999 -9999 -9999 -9999 -9999 -9999 -9999 -9999 -9999 -9999 -9999 -9999 -9999 -9999 -9999 -9999 -9999 -9999 -9999 -9999 -9999 -9999 -9999 -9999 -9999 -9999 -9999 -9999 -9999 -9999 -9999 -9999 -9999 -9999 -9999 -9999 -9999 -9999 -9999 -9999 -9999 -9999 -9999 -9999 -9999 -9999 -9999 -9999 -9999 -9999 -9999 -9999 -9999 -9999 -9999 -9999 -9999 -9999 -9999 -9999 -9999
349.20758056640625 347.48468017578125 341.568023681640625 313.781524658203125 351.5574951171875 356.72552490234375 339.492919921875 379.157196044921875 399.23297119140625 400.913665771484375 383.343414306640625 349.2515869140625 329.021026611328125 332.836395263671875 392.77130126953125 407.262725830078125 421.803253173828125 391.508697509765625 366.477630615234375 381.08544921875 415.0489501953125 406.01153564453125 397.4031982421875 369.606536865234375 360.651123046875 362.490264892578125 365.002197265625 370.229034423828125 372.373260498046875 372.577239990234375 375.64447021484375 371.378326416015625 373.24359130859375 380.20574951171875 420.30889892578125 455.7969970703125 470.700958251953125 472.00634765625 449.183197021484375 488.516632080078125 523.19873046875 533.20794677734375 538.0426025390625 522.58770751953125 514.68841552734375 498.405609130859375 529.14501953125 547.57037353515625 528.3673095703125 483.0987548828125 484.845489501953125 510.115142822265625 517.61962890625 498.744293212890625 506.272735595703125 501.941741943359375 543.478515625 528.544189453125 547.6162109375 538.34332275390625 547.4342041015625 514.56011962890625 579.5076904296875 574.48553466796875 570.60797119140625 582.30718994140625 598.23846435546875 599.687255859375 618.1072998046875 611.96221923828125 632.853759765625 680.720458984375 651.91168212890625 652.576171875 657.2911376953125 647.306640625 651.85943603515625 627.11004638671875 658.85003662109375 629.92828369140625 621.95758056640625 634.2484130859375 651.322998046875 655.4755859375 678.0789794921875 693.477783203125 714.10711669921875 725.43792724609375 772.3504638671875 835.26904296875 897.20758056640625 859.22930908203125 828.94049072265625 785.61199951171875 790.828369140625 836.42626953125 787.9766845703125 807.81976318359375 846.01422119140625 809.1370849609375 701.4678955078125 687.622314453125 730.58367919921875 728.2200927734375 624.478759765625 488.114593505859375 384.335784912109375 365.2384033203125 -9999 -9999 -9999 -9999 -9999 -9999 -9999 -9999 -9999 -9999 -9999 -9999 -9999 -9999 -9999 -9999 -9999 -9999 -9999 -9999 -9999 -9999 -9999 -9999 -9999 -9999 -9999 -9999 -9999 -9999 -9999 -9999 -9999 -9999 -9999 -9999 -9999 -9999 -9999 -9999 -9999 -9999 -9999 -9999 -9999 -9999 -9999 -9999 -9999 -9999 -9999 -9999 -9999 -9999 -9999 -9999 -9999 -9999 -9999 -9999 -9999 -9999 -9999 -9999 -9999 -9999 -9999 -9999 -9999 -9999 -9999 -9999 -9999 -9999 -9999 -9999 -9999 -9999 -9999 -9999 -9999 -9999 -9999 -9999 -9999 -9999 -9999 -9999 -9999 -9999 -9999 -9999 -9999 -9999 -9999 -9999 -9999 -9999 -9999 -9999 -9999 -9999 -9999 -9999 -9999 -9999 -9999
308.714935302734375 305.20050048828125 304.992706298828125 307.1669921875 317.107147216796875 329.9644775390625 312.64849853515625 359.34503173828125 402.57159423828125 393.914398193359375 364.18194580078125 332.66632080078125 293.27740478515625 333.731597900390625 371.908233642578125 403.17425537109375 428.135772705078125 416.969573974609375 418.72796630859375 403.1312255859375 427.074371337890625 428.475860595703125 397.28997802734375 375.77447509765625 365.2318115234375 371.876129150390625 373.52069091796875 413.585357666015625 414.9150390625 389.265350341796875 387.1611328125 416.3619384765625 398.25872802734375 390.53717041015625 417.43585205078125 474.206451416015625 526.24072265625 524.32562255859375 500.46051025390625 526.0552978515625 515.58319091796875 532.18621826171875 533.495849609375 512.40875244140625 484.86322021484375 523.73382568359375 532.288330078125 545.76190185546875 526.50433349609375 486.784698486328125 473.003570556640625 509.854156494140625 539.22845458984375 521.595458984375 487.3419189453125 498.020355224609375 538.4683837890625 495.96380615234375 510.212921142578125 505.934661865234375 480.18438720703125 516.49725341796875 562.499755859375 585.1090087890625 601.0286865234375 598.94281005859375 584.85260009765625 604.1129150390625 600.13031005859375 605.18505859375 616.76898193359375 588.20367431640625 593.33209228515625 620.91497802734375 614.8828125 622.5999755859375 616.96502685546875 603.2803955078125 624.99505615234375 623.893798828125 611.8958740234375 606.5267333984375 620.30230712890625 644.12469482421875 668.87353515625 671.2696533203125 698.7530517578125 728.1556396484375 778.58172607421875 812.0556640625 884.232421875 854.88665771484375 808.85296630859375 771.69989013671875 816.14971923828125 822.350341796875 781.0941162109375 810.4940185546875 819.53387451171875 772.320068359375 674.6837158203125 588.45404052734375 624.901611328125 674.55950927734375 603.431884765625 519.21099853515625 392.841583251953125 391.29901123046875 -9999 -9999 -9999 -9999 -9999 -9999 -9999 -9999 -9999 -9999 -9999 -9999 -9999 -9999 -9999 -9999 -9999 -9999 -9999 -9999 -9999 -9999 -9999 -9999 -9999 -9999 -9999 -9999 -9999 -9999 -9999 -9999 -9999 -9999 -9999 -9999 -9999 -9999 -9999 -9999 -9999 -9999 -9999 -9999 -9999 -9999 -9999 -9999 -9999 -9999 -9999 -9999 -9999 -9999 -9999 -9999 -9999 -9999 -9999 -9999 -9999 -9999 -9999 -9999 -9999 -9999 -9999 -9999 -9999 -9999 -9999 -9999 -9999 -9999 -9999 -9999 -9999 -9999 -9999 -9999 -9999 -9999 -9999 -9999 -9999 -9999 -9999 -9999 -9999 -9999 -9999 -9999 -9999 -9999 -9999 -9999 -9999 -9999 -9999 -9999 -9999 -9999 -9999 -9999 -9999 -9999 -9999
